# .PCD v0.7 - Point Cloud Data file format
VERSION 0.7
FIELDS x y z
SIZE 4 4 4
TYPE F F F
COUNT 1 1 1
WIDTH 1686
HEIGHT 1
VIEWPOINT 0 0 0 1 0 0 0
POINTS 1686
DATA ascii
2.2062147 -1.2102169 -0.30424026
3.2819355 -1.0851028 -0.29878271
1.5667454 -0.85986495 -0.34028822
2.6188853 -0.86585832 -0.43089268
1.5901905 -0.87455136 -0.47625282
2.0801249 -0.68675512 -0.49732792
38.18251 -21.075697 10.052768
37.066238 -12.155815 10.42845
14.472152 -7.9868894 2.6095767
37.670216 -12.433897 7.6969957
11.557796 -6.3807249 1.151981
nan nan nan
9.4066601 -5.1948929 0.18695889
nan nan nan
3.7365723 -2.0648005 -0.22190444
5.3271527 -1.7789538 -0.097428054
2.1978478 -1.2151217 -0.30363178
3.2735927 -1.094407 -0.2983478
1.5530043 -0.85937589 -0.33790523
2.5877304 -0.86564153 -0.42620483
1.576574 -0.87422967 -0.47302178
2.0755239 -0.69288284 -0.496766
38.117222 -21.213587 10.055016
37.044212 -12.291968 10.434267
14.385928 -8.0049334 2.5990291
37.451996 -12.507034 7.6612511
11.412535 -6.3499775 1.1395613
nan nan nan
9.3993874 -5.233779 0.18717705
nan nan nan
3.7206204 -2.0729666 -0.2213811
5.3354373 -1.8013957 -0.097689837
2.1957593 -1.223996 -0.30393603
3.2673924 -1.1050326 -0.29813036
1.5437198 -0.86092818 -0.33647546
2.5591009 -0.86555892 -0.42190763
1.5610248 -0.87237054 -0.46914455
2.063854 -0.69702524 -0.49451819
38.059418 -21.347025 10.058387
37.261986 -12.501518 10.507287
nan nan nan
nan nan nan
11.333831 -6.3580866 1.1338961
nan nan nan
9.3994169 -5.2747087 0.18752609
nan nan nan
3.7093732 -2.0828466 -0.2211194
5.3362155 -1.8224268 -0.097820736
2.1873634 -1.2288368 -0.30332753
3.2519219 -1.1118485 -0.29704309
1.5385673 -0.8651064 -0.33599886
2.5303493 -0.8657375 -0.41761041
1.5516618 -0.87425095 -0.46720597
2.0684521 -0.70621204 -0.49620405
38.094925 -21.542103 10.087608
37.378212 -12.685822 10.552522
nan nan nan
nan nan nan
11.256321 -6.3637609 1.128231
nan nan nan
9.3961744 -5.3161054 0.18783152
nan nan nan
3.69122 -2.0896277 -0.22046521
5.3561401 -1.849064 -0.098300673
2.1722693 -1.2303418 -0.30180636
3.2433109 -1.1215713 -0.29660815
1.5292884 -0.86656713 -0.3345691
2.5064487 -0.86689568 -0.41409451
1.5361613 -0.87222338 -0.46332875
2.0567575 -0.71026689 -0.49395624
37.667725 -21.46567 9.9932013
37.504982 -12.867679 10.600341
nan nan nan
nan nan nan
11.197259 -6.3820434 1.124527
nan nan nan
9.398037 -5.3583813 0.1882242
nan nan nan
3.6734304 -2.0956662 -0.21981101
5.3708987 -1.8751476 -0.098693348
2.1638694 -1.2350751 -0.30119786
3.2372222 -1.1315018 -0.29639071
1.5262542 -0.87190008 -0.3345691
2.4777532 -0.86671585 -0.40979731
1.5289179 -0.87517607 -0.46203631
2.0520892 -0.71628553 -0.49339426
37.575665 -21.587315 9.9887056
37.788399 -13.112485 10.693395
nan nan nan
nan nan nan
11.385498 -6.5394897 1.1456622
nan nan nan
9.4117794 -5.4098449 0.18887867
nan nan nan
3.6617653 -2.1059847 -0.21954931
5.3882298 -1.9012464 -0.099129662
2.1595447 -1.2426209 -0.30119786
3.2262049 -1.1403142 -0.29573834
1.5125747 -0.87108696 -0.33218613
2.4514189 -0.86716563 -0.40589073
1.5092821 -0.87056953 -0.45686668
2.056473 -0.72586215 -0.49508011
37.885841 -21.941782 10.091543
37.860901 -13.285881 10.726997
nan nan nan
nan nan nan
11.297949 -6.5417452 1.1391256
nan nan nan
9.4036503 -5.4489331 0.18909682
nan nan nan
3.6457551 -2.1137414 -0.21902597
nan nan nan
2.1573396 -1.2513983 -0.30150211
3.2175121 -1.1498989 -0.29530343
1.5095248 -0.87636149 -0.33218613
2.4134796 -0.86330467 -0.40003094
1.5041478 -0.87461632 -0.45622048
2.0470386 -0.73059428 -0.49339426
38.212925 -22.309731 10.199437
37.563923 -13.329149 10.655914
nan nan nan
nan nan nan
11.165359 -6.5170984 1.1280133
nan nan nan
9.3888884 -5.4842467 0.18918408
nan nan nan
3.6318896 -2.1226721 -0.21863344
nan nan nan
2.1422527 -1.2526503 -0.29998088
3.2017612 -1.1569068 -0.29421616
1.5044934 -0.88012093 -0.33170953
2.3920135 -0.86462158 -0.39690569
1.4802642 -0.86762601 -0.44975844
2.0467691 -0.73855728 -0.49395624
38.084145 -22.404209 10.184826
37.403576 -13.412084 10.622958
37.91848 -22.306755 6.9544435
nan nan nan
11.357174 -6.6823597 1.1498022
21.752226 -7.8833399 2.8324769
nan nan nan
18.705353 -6.7982388 1.0412239
3.6183789 -2.1309009 -0.21824093
nan nan nan
2.1402237 -1.2610087 -0.30028513
3.1908853 -1.164965 -0.29356381
1.5035247 -0.88661611 -0.33218613
2.3704143 -0.86621928 -0.39378044
1.4730707 -0.87032622 -0.44846603
2.0465989 -0.7461701 -0.49451819
38.311615 -22.718428 10.266871
37.374695 -13.549149 10.628128
37.693836 -22.35207 6.9274888
nan nan nan
11.152871 -6.6120024 1.1312815
21.54653 -7.8897662 2.8090503
nan nan nan
18.833843 -6.9194183 1.0497284
3.6023333 -2.138417 -0.21771757
7.250175 -2.6695042 -0.13425262
2.1315441 -1.2659343 -0.29967666
3.1867995 -1.1760961 -0.29356381
1.5005763 -0.89159715 -0.33218613
2.3466668 -0.86641598 -0.39026454
1.4639553 -0.87149322 -0.44652739
2.0325446 -0.74912173 -0.49170843
38.353172 -22.915323 10.298341
37.352234 -13.681314 10.634589
37.689457 -22.51874 6.9403801
21.210798 -7.8173532 4.3832364
11.159652 -6.6687837 1.1343319
21.344311 -7.900362 2.7862322
nan nan nan
18.628214 -6.9141164 1.0395229
3.5909383 -2.1477859 -0.21745588
7.1962929 -2.6782568 -0.13342364
2.1273344 -1.2729958 -0.29967666
3.180547 -1.1857905 -0.29334635
1.4890385 -0.89177674 -0.33027974
2.3251078 -0.86772913 -0.38713932
1.4546959 -0.87286335 -0.44458878
2.0346184 -0.75754797 -0.4928323
nan nan nan
37.186478 -13.768026 10.600987
37.574661 -22.628508 6.9337392
21.181082 -7.8904881 4.38276
11.34015 -6.8278217 1.1550314
21.170176 -7.9200726 2.767065
nan nan nan
18.872803 -7.0798807 1.0545695
3.5727317 -2.1538577 -0.21680169
7.1780114 -2.6985929 -0.13324912
2.1165061 -1.2765641 -0.29876393
3.1647298 -1.1925102 -0.29225907
1.4859166 -0.89696896 -0.33027974
2.2873847 -0.86283225 -0.3812795
1.4414668 -0.8714236 -0.44135776
2.0228348 -0.76123315 -0.49058449
nan nan nan
37.178905 -13.912978 10.612618
nan nan nan
nan nan nan
11.309862 -6.8634872 1.1543778
nan nan nan
nan nan nan
18.866652 -7.152792 1.0556163
3.5587926 -2.1624234 -0.21640916
7.1241412 -2.7067907 -0.13242012
2.1120374 -1.2839444 -0.29876393
3.1628768 -1.2044332 -0.29247653
1.4806814 -0.90087247 -0.32980317
2.265887 -0.86380941 -0.37815422
1.4301726 -0.87141401 -0.43877295
2.022444 -0.76915056 -0.49114645
38.616051 -23.624636 10.434896
37.231766 -14.081104 10.641698
nan nan nan
nan nan nan
11.370811 -6.9549155 1.1630933
nan nan nan
nan nan nan
nan nan nan
3.5405805 -2.168309 -0.21575497
7.1029787 -2.7271693 -0.13220197
2.0969682 -1.2848188 -0.29724273
3.1563272 -1.2145749 -0.29225907
1.4775279 -0.90603554 -0.32980317
2.2467167 -0.86553043 -0.37541965
1.4106699 -0.86627162 -0.43360332
2.0197468 -0.77620548 -0.49114645
38.514683 -23.74778 10.429837
37.320004 -14.263559 10.681116
12.979939 -8.0018311 2.4068267
37.2271 -14.309973 7.7384591
11.367662 -7.0076375 1.1652722
nan nan nan
nan nan nan
nan nan nan
3.53299 -2.1806548 -0.21575497
7.0607834 -2.7393088 -0.13159114
2.0945811 -1.2934362 -0.29754698
3.1451013 -1.2228869 -0.29160672
1.4743561 -0.91118753 -0.32980317
2.2275624 -0.86712825 -0.37268507
1.4055854 -0.86991715 -0.43295711
2.0102069 -0.7806201 -0.48946062
38.491554 -23.919365 10.446135
37.565128 -14.507688 10.765769
12.870135 -7.9962583 2.3915911
37.101425 -14.410518 7.7227316
11.381206 -7.0709376 1.1691943
nan nan nan
nan nan nan
18.023386 -7.0500259 1.012439
3.5147603 -2.1863756 -0.21510078
7.0279007 -2.7548306 -0.13115482
2.0879471 -1.299427 -0.29724273
3.1431327 -1.2347655 -0.29182416
1.4607581 -0.90982956 -0.32742018
2.2107236 -0.86950231 -0.37034112
1.3861594 -0.86457437 -0.42778748
2.0120091 -0.78940213 -0.49058449
38.54615 -24.140215 10.483786
37.608749 -14.675587 10.79291
nan nan nan
36.93895 -14.496023 7.699379
11.464099 -7.1780424 1.1803067
nan nan nan
13.055961 -8.1814213 0.26833075
18.100838 -7.1532454 1.018196
3.5049927 -2.1973042 -0.21496993
6.9973207 -2.771075 -0.13076214
2.0833991 -1.3067074 -0.29724273
3.124907 -1.2402359 -0.29051945
1.4575733 -0.91492301 -0.32742018
2.1824136 -0.8672325 -0.36604393
1.3831331 -0.86940765 -0.42778748
1.9979088 -0.79195648 -0.48777473
38.447227 -24.265516 10.479851
37.795464 -14.900642 10.861408
nan nan nan
36.753513 -14.571526 7.6712589
11.483199 -7.2459316 1.1848823
nan nan nan
12.966037 -8.1882315 0.26706544
18.235754 -7.2802181 1.0272239
3.4867504 -2.2028532 -0.21431573
6.9551063 -2.7825043 -0.13015132
2.0683422 -1.3073348 -0.29572153
3.1205583 -1.2511363 -0.29051945
1.4605883 -0.92394817 -0.32884994
2.1610262 -0.86752194 -0.3629187
1.3760124 -0.87164092 -0.42649508
2.0019224 -0.80162776 -0.48946062
38.37051 -24.404806 10.4821
38.01247 -15.139684 10.938952
nan nan nan
36.807232 -14.741693 7.6931829
11.562905 -7.3528051 1.1957767
nan nan nan
12.878334 -8.195858 0.26584378
18.152342 -7.3204985 1.0239528
3.4769349 -2.2136691 -0.21418488
6.9082613 -2.7918029 -0.12945323
2.06795 -1.3172162 -0.29633
3.1023138 -1.2564309 -0.2892147
1.4573542 -0.92904091 -0.32884994
2.1350837 -0.86582583 -0.35901213
1.3627909 -0.86992943 -0.42326403
1.9900711 -0.80497652 -0.48721281
38.572208 -24.722639 10.560773
nan nan nan
nan nan nan
36.894329 -14.926211 7.7222552
11.470075 -7.3501148 1.1888043
39.335922 -15.977582 5.2012916
12.784425 -8.1989222 0.2644912
18.112806 -7.37817 1.0231678
3.4565825 -2.2176979 -0.21339986
6.8683815 -2.803638 -0.12888601
2.0549908 -1.3190585 -0.29511306
3.1025224 -1.269132 -0.28964964
1.4479125 -0.9301362 -0.32742018
2.1137533 -0.8658222 -0.35588688
1.3475688 -0.86682749 -0.4193868
1.989506 -0.81283468 -0.48777473
nan nan nan
nan nan nan
38.170757 -24.653728 7.1833677
36.994221 -15.117086 7.7541866
11.343931 -7.3252454 1.1783457
39.277615 -16.113852 5.2009873
12.688554 -8.2000732 0.26309502
18.280899 -7.5210967 1.0341585
3.4425321 -2.2256801 -0.21300732
6.8238802 -2.8133261 -0.12823156
2.0482914 -1.3248744 -0.2948088
3.088861 -1.2761627 -0.2887798
1.4508328 -0.93919247 -0.32884994
2.0947328 -0.86661971 -0.3531523
1.3425097 -0.87021005 -0.4187406
1.9776412 -0.81607699 -0.48552692
nan nan nan
nan nan nan
38.21278 -24.870335 7.2075887
37.13633 -15.326623 7.7951741
11.278636 -7.3389845 1.1742058
39.161522 -16.22617 5.1930771
12.582357 -8.1938353 0.26148066
nan nan nan
3.4263778 -2.2322285 -0.21248397
6.7886281 -2.8265755 -0.1277516
2.0436542 -1.3320162 -0.2948088
3.0820878 -1.2859812 -0.28856236
1.4413836 -0.94022191 -0.32742018
2.0734522 -0.86634767 -0.35002708
1.3313825 -0.86959857 -0.41615579
1.965778 -0.81924629 -0.48327911
nan nan nan
nan nan nan
38.131924 -25.007633 7.2087607
37.125645 -15.474095 7.8042293
nan nan nan
38.754398 -16.216257 5.1465282
12.499348 -8.2020435 0.26034626
nan nan nan
3.414392 -2.2414331 -0.21222229
6.7510633 -2.8386459 -0.12722804
2.0410652 -1.3405057 -0.29511306
3.0638015 -1.2909483 -0.28725764
1.4442407 -0.9492982 -0.32884994
2.0567532 -0.86784822 -0.34768313
1.320276 -0.86892009 -0.41357094
1.9629064 -0.82610315 -0.48327911
nan nan nan
38.141232 -15.967679 11.054623
38.085598 -25.167816 7.2165737
37.048782 -15.594074 7.7994633
nan nan nan
38.65926 -16.327309 5.1410518
12.391415 -8.1932268 0.25868827
nan nan nan
3.3982205 -2.2478249 -0.21169895
6.7042909 -2.8465867 -0.12652995
2.0345402 -1.345896 -0.2948088
3.0615695 -1.3026069 -0.28747508
1.4288158 -0.9459399 -0.32599038
2.0356731 -0.86696112 -0.34455788
1.3071796 -0.86683762 -0.41033995
1.955523 -0.83105421 -0.48215523
38.451584 -25.593273 10.647314
38.165939 -16.126965 11.07724
38.141708 -25.387016 7.2431378
37.206947 -15.806065 7.8437867
39.277412 -26.143021 4.1248636
nan nan nan
12.305929 -8.1954699 0.25746661
18.726435 -8.0078964 1.06556
3.3865941 -2.2563112 -0.21143726
6.6810241 -2.8629045 -0.12626815
2.0218101 -1.3471253 -0.29359186
3.0549433 -1.3117729 -0.28725764
1.4277115 -0.95203674 -0.32646701
2.0168929 -0.86691427 -0.34182331
1.3022912 -0.86982381 -0.40969372
1.9617199 -0.8413558 -0.48440304
38.550629 -25.84409 10.698451
38.24332 -16.309319 11.115366
38.020393 -25.488609 7.2361064
37.267113 -15.977699 7.8676167
39.204983 -26.282833 4.1263885
nan nan nan
12.220566 -8.197237 0.25624496
18.520966 -7.9928322 1.0553545
3.3749483 -2.2647448 -0.21117558
6.6595168 -2.8812528 -0.12605
2.0150361 -1.3527896 -0.29328761
3.0457728 -1.3204535 -0.28682271
1.4284507 -0.95975649 -0.32742018
2.0002511 -0.86807942 -0.33947936
1.2892375 -0.86761034 -0.40646273
1.9632459 -0.85012466 -0.48552692
38.591389 -26.067133 10.734978
38.234959 -16.46372 11.129582
nan nan nan
nan nan nan
39.083626 -26.409616 4.1237741
39.338013 -17.0933 5.2545333
12.171803 -8.2293701 0.25585225
18.365662 -8.0058212 1.0481584
3.3645575 -2.2756996 -0.21104473
6.640254 -2.9004848 -0.12587547
2.0121186 -1.3615584 -0.29359186
3.0320134 -1.3270953 -0.2859529
1.4169688 -0.95922476 -0.32551381
1.9881536 -0.87111151 -0.33791673
1.2881981 -0.87346303 -0.4071089
1.9692031 -0.86085641 -0.48777473
38.62043 -26.293406 10.769819
38.296169 -16.656713 11.165124
nan nan nan
nan nan nan
38.968555 -26.530464 4.121377
39.302368 -17.249332 5.2581844
12.176054 -8.2943287 0.25655037
18.218765 -8.0176153 1.0413547
3.3483441 -2.2818027 -0.21052139
6.6117868 -2.9155891 -0.12552643
2.0012059 -1.3643755 -0.29267913
3.0250831 -1.3366675 -0.28573543
1.4174949 -0.9671827 -0.32646701
1.966866 -0.87043661 -0.33479151
1.2731867 -0.8697657 -0.40323168
1.9572631 -0.86380988 -0.48552692
38.516365 -26.419788 10.766447
38.056458 -16.71069 11.112135
nan nan nan
nan nan nan
nan nan nan
39.325863 -17.423599 5.2694411
12.177938 -8.3580008 0.25720483
nan nan nan
3.3300707 -2.2864063 -0.20986716
6.5810113 -2.9295149 -0.12513375
1.9984757 -1.3727592 -0.29298338
3.0158472 -1.3451961 -0.28530052
1.4100685 -0.96933973 -0.32551381
1.9502758 -0.87128282 -0.33244759
1.2602047 -0.86734617 -0.40000069
1.9497814 -0.86866367 -0.48440304
38.564186 -26.651026 10.805784
37.600464 -16.667313 10.995818
11.590153 -8.0081406 2.2232189
nan nan nan
nan nan nan
nan nan nan
12.165135 -8.4118338 0.25755388
nan nan nan
3.3179646 -2.2951741 -0.2096055
6.5497055 -2.9444048 -0.12474107
1.9936715 -1.3797268 -0.29298338
3.0063519 -1.3542012 -0.28486562
1.412724 -0.97845447 -0.32694358
1.942716 -0.8760646 -0.33166626
1.2550346 -0.8705802 -0.39935446
1.9354658 -0.8708306 -0.48159325
38.530895 -26.82724 10.822642
37.425213 -16.746197 10.961569
11.472966 -7.986464 2.2060299
nan nan nan
nan nan nan
nan nan nan
12.171133 -8.4820948 0.25833923
nan nan nan
3.3033879 -2.3030331 -0.20921297
6.5234489 -2.9600296 -0.12443565
1.9824986 -1.3827612 -0.29207063
2.9993382 -1.3636595 -0.28464818
1.4093 -0.9833799 -0.32694358
1.9238988 -0.87571388 -0.32893169
1.242099 -0.86802626 -0.39612344
1.9190934 -0.87156665 -0.47822157
38.284748 -26.864729 10.781057
37.392197 -16.896179 10.96997
11.447659 -8.0312967 2.2068112
nan nan nan
8.9994726 -6.3132496 0.95871317
nan nan nan
nan nan nan
nan nan nan
3.2871597 -2.3088067 -0.20868962
6.4903445 -2.9723892 -0.12399934
1.979689 -1.3911014 -0.29237488
2.9854996 -1.3699784 -0.28377834
1.4096981 -0.99136651 -0.32789677
1.9184304 -0.88173312 -0.32854104
1.2311697 -0.86678553 -0.39353862
1.902739 -0.87219894 -0.47484982
nan nan nan
37.374744 -17.045635 10.982248
11.37923 -8.0426979 2.198998
nan nan nan
8.950943 -6.3259344 0.95588058
nan nan nan
nan nan nan
nan nan nan
3.2648189 -2.3101656 -0.20777375
6.4504237 -2.9814117 -0.12343214
1.9727969 -1.3965678 -0.29207063
2.9784381 -1.379348 -0.2835609
1.4022272 -0.99343932 -0.32694358
1.9018871 -0.88221914 -0.32619709
1.2261684 -0.86967814 -0.39289242
1.8819778 -0.87069196 -0.47035423
nan nan nan
37.30624 -17.171955 10.979664
11.298792 -8.045125 2.1888411
nan nan nan
9.0221195 -6.4236016 0.96590352
nan nan nan
nan nan nan
nan nan nan
3.2486062 -2.3157475 -0.20725037
6.4195833 -2.9944129 -0.12303945
1.9618527 -1.3991187 -0.29115793
2.9713471 -1.3886849 -0.28334343
1.4027427 -1.0011837 -0.32789677
1.898796 -0.88885266 -0.32619709
1.2172357 -0.86973339 -0.39095381
1.8634599 -0.87007648 -0.46642056
nan nan nan
37.270161 -17.313261 10.986771
nan nan nan
nan nan nan
9.0745125 -6.5087762 0.97396547
nan nan nan
nan nan nan
nan nan nan
3.2364488 -2.3241589 -0.20698869
6.3864689 -3.0061722 -0.12260314
1.9569569 -1.4059582 -0.29115793
2.9574656 -1.3948114 -0.28247362
1.3932666 -1.0017697 -0.32646701
1.8889766 -0.89232576 -0.32502511
1.2083175 -0.86973697 -0.3890152
1.8471755 -0.87037563 -0.46304882
nan nan nan
nan nan nan
nan nan nan
nan nan nan
nan nan nan
nan nan nan
12.187322 -8.8133478 0.26191697
nan nan nan
3.2283161 -2.3354418 -0.20698869
6.3533516 -3.0177369 -0.12216684
1.9480191 -1.409868 -0.29054946
2.9503284 -1.4040593 -0.28225616
1.3857893 -1.0037433 -0.32551381
1.8836191 -0.89785647 -0.32463446
1.203321 -0.87252921 -0.38836896
1.8221024 -0.86640763 -0.45742929
nan nan nan
nan nan nan
37.523525 -27.320169 7.337677
37.62875 -17.888624 8.084466
nan nan nan
nan nan nan
12.180726 -8.8735008 0.26244053
nan nan nan
3.218127 -2.3452251 -0.20685786
6.3157215 -3.0269496 -0.12164327
1.9490976 -1.4210495 -0.29146218
2.9431627 -1.4132744 -0.28203869
1.3822773 -1.0085745 -0.32551381
1.8849287 -0.9065569 -0.32541579
1.1924746 -0.8710162 -0.38578415
1.8080735 -0.86751908 -0.45461956
37.507496 -27.509333 10.722054
nan nan nan
37.39806 -27.429075 7.3318167
37.568291 -18.020927 8.0849428
nan nan nan
10.053033 -4.8432584 1.363909
12.175873 -8.935195 0.26300776
nan nan nan
3.201874 -2.3505311 -0.2063345
6.2848577 -3.0391965 -0.12125058
1.9381292 -1.4234332 -0.29054946
2.9292402 -1.4192083 -0.28116888
1.3767723 -1.0119377 -0.32503721
1.8795289 -0.91205776 -0.32502511
1.1777667 -0.86657059 -0.38190693
1.794059 -0.86854309 -0.45180979
37.360302 -27.602451 10.707442
nan nan nan
37.306061 -27.562389 7.3325982
37.279827 -18.042929 8.0363302
nan nan nan
10.015976 -4.8685656 1.3611709
12.176766 -9.0014191 0.26370585
10.054744 -4.8982201 0.58433092
3.1816101 -2.3527811 -0.20554946
6.2427492 -3.0457921 -0.12063976
1.931155 -1.4287125 -0.29024521
2.9175515 -1.4261527 -0.28051654
1.3771731 -1.0196624 -0.32599038
1.8741136 -0.91753215 -0.32463446
1.1669815 -0.86491412 -0.37932211
1.7691029 -0.86415964 -0.44619027
nan nan nan
nan nan nan
nan nan nan
37.03672 -18.077126 7.9967732
nan nan nan
9.9351482 -4.8701062 1.352348
12.188952 -9.0730982 0.26462209
9.9958611 -4.9106369 0.58184493
3.1737905 -2.3633187 -0.20554946
6.2074022 -3.055438 -0.12015981
1.9244176 -1.4336245 -0.28994095
2.9125555 -1.4363282 -0.28051654
1.3678865 -1.0198165 -0.32456061
1.8732772 -0.92483014 -0.32502511
1.1620216 -0.867535 -0.37867591
1.7573252 -0.86604285 -0.44394243
nan nan nan
nan nan nan
nan nan nan
36.89193 -18.166195 7.9791393
nan nan nan
9.8580198 -4.875082 1.3441335
nan nan nan
9.9062061 -4.9117813 0.57765806
3.1571224 -2.368938 -0.20502611
6.163106 -3.0604336 -0.11950535
1.9151838 -1.4376858 -0.28933251
2.8963671 -1.4409552 -0.27942926
1.3702005 -1.0290129 -0.32599038
1.8678248 -0.93026745 -0.32463446
1.15513 -0.86867779 -0.3773835
1.7368205 -0.86353713 -0.43944681
38.426086 -29.016878 11.099685
nan nan nan
12.707243 -9.5940952 2.5134754
36.710815 -18.244505 7.9543562
8.6464653 -6.5274234 0.94476831
9.7956715 -4.8890367 1.3380487
nan nan nan
9.8264694 -4.9150853 0.57399458
3.1488338 -2.3799438 -0.20502611
6.1389723 -3.0752199 -0.11924356
1.9101536 -1.4443623 -0.28933251
2.8868644 -1.4488286 -0.27899435
1.3644645 -1.032545 -0.32551381
1.8599852 -0.93489885 -0.32385316
1.1463214 -0.86832231 -0.37544489
1.720715 -0.86307281 -0.43607512
38.43314 -29.233427 11.131155
nan nan nan
12.610787 -9.5905552 2.5009747
36.521847 -18.30986 7.9271908
8.6256094 -6.5590734 0.94498616
9.7896299 -4.9287748 1.3395698
nan nan nan
9.800334 -4.9448609 0.57347119
3.1325645 -2.3848679 -0.20450275
6.0991879 -3.0819941 -0.11867636
1.9011544 -1.4480109 -0.28872401
2.8751187 -1.4555315 -0.27834198
1.360852 -1.0373015 -0.32551381
1.8589153 -0.94249767 -0.32424384
1.1356112 -0.8664484 -0.37286007
1.7068107 -0.86360133 -0.43326536
38.472015 -29.475563 11.172177
37.680912 -18.964962 11.27821
12.600754 -9.6525383 2.5056624
36.551888 -18.484846 7.9476838
8.7074366 -6.6694226 0.95653427
9.7944946 -4.9741435 1.3426123
nan nan nan
9.789691 -4.9824352 0.57386374
3.1182795 -2.3912277 -0.20411022
6.059432 -3.0885282 -0.11810915
1.8941206 -1.4531263 -0.28841975
2.8655813 -1.4632996 -0.27790707
1.3513881 -1.0375553 -0.32408401
1.8556142 -0.94898075 -0.32424384
1.1268411 -0.86598456 -0.37092146
1.6972684 -0.86624748 -0.4315795
38.47303 -29.690044 11.202522
37.614479 -19.096378 11.27821
12.654949 -9.7643538 2.5232418
36.596451 -18.66807 7.9715137
8.4514551 -6.5202246 0.93082327
9.7969532 -5.018476 1.3453504
nan nan nan
9.803339 -5.0325265 0.57569551
3.1099133 -2.4020979 -0.20411022
6.0330467 -3.101671 -0.11780374
1.8909992 -1.461248 -0.28872401
2.8515933 -1.4687445 -0.27703726
1.3419391 -1.0377558 -0.32265425
1.8478961 -0.95319784 -0.32346252
1.1142727 -0.86250842 -0.36769044
1.6747171 -0.86217928 -0.42652193
38.430706 -29.872005 11.220505
37.590584 -19.249573 11.291134
12.620788 -9.8084688 2.5232418
36.500515 -18.779987 7.9648414
8.5525188 -6.6459823 0.94455034
9.7926064 -5.0594721 1.3471758
8.6366854 -6.7162542 0.19036211
9.8034534 -5.075892 0.57674217
3.0995395 -2.4114048 -0.20397937
5.9977655 -3.1100705 -0.11732379
1.885887 -1.46784 -0.28872401
2.8442371 -1.4775445 -0.2768198
1.3402427 -1.0439439 -0.32313082
1.8467506 -0.96077722 -0.32385316
1.1093526 -0.86490518 -0.36704424
1.6652032 -0.86466807 -0.42483607
38.272495 -29.963919 11.20477
nan nan nan
12.483429 -9.7717829 2.5025373
36.835567 -19.115231 8.0525341
8.4704409 -6.6297345 0.93801367
9.7946949 -5.1039357 1.3499141
8.5718699 -6.7139864 0.18944585
9.8055954 -5.1204734 0.57791978
3.0930679 -2.4237504 -0.20411022
5.9713626 -3.1228893 -0.11701838
1.872945 -1.468284 -0.28750706
2.8324392 -1.4840057 -0.27616742
1.3308033 -1.0440649 -0.32170105
1.845575 -0.9683603 -0.32424384
1.1044295 -0.86727816 -0.36639804
1.6448885 -0.86147678 -0.42034045
38.362774 -30.251196 11.262089
nan nan nan
12.627623 -9.9559717 2.5384774
37.120888 -19.428013 8.1297436
nan nan nan
9.7930965 -5.1444597 1.3520437
8.5424948 -6.7392211 0.18931496
9.8009205 -5.1616454 0.57870483
3.0728347 -2.4252465 -0.20332518
5.9537897 -3.1402202 -0.11688748
1.8697548 -1.4763522 -0.28781131
2.822834 -1.4915627 -0.27573252
1.3350302 -1.0545659 -0.32360744
1.8357974 -0.97102582 -0.32307184
1.0938268 -0.86512482 -0.36381319
1.6397145 -0.86608088 -0.4197785
38.611366 -30.655453 11.364926
38.602768 -20.272154 11.657532
nan nan nan
37.117039 -19.583063 8.1430874
nan nan nan
9.7992048 -5.191381 1.3553903
8.4966164 -6.7488523 0.18879139
9.8080101 -5.206985 0.58014405
3.0608678 -2.4323149 -0.2030635
5.9229236 -3.1504326 -0.1164948
1.8629075 -1.4809986 -0.28750706
2.8178723 -1.5009154 -0.27573252
1.3275032 -1.0561594 -0.32265425
1.834578 -0.97858536 -0.32346252
1.0851398 -0.86441582 -0.36187461
1.6174558 -0.86125797 -0.41472092
nan nan nan
38.553116 -20.418079 11.663994
nan nan nan
37.191452 -19.78857 8.1745424
nan nan nan
nan nan nan
8.4495859 -6.759727 0.18826781
nan nan nan
3.0484622 -2.4398625 -0.20280182
5.8964653 -3.1628282 -0.11618939
1.8538549 -1.4843873 -0.28689855
2.8035703 -1.5065304 -0.27486271
1.3218951 -1.0592499 -0.32217765
1.8289738 -0.98381829 -0.32307184
1.0802341 -0.86668438 -0.36122838
1.6078417 -0.8637383 -0.41303506
nan nan nan
38.611565 -20.62192 11.703412
nan nan nan
37.364368 -20.048204 8.2279215
nan nan nan
nan nan nan
8.3780537 -6.752996 0.18722068
nan nan nan
3.0356135 -2.4478831 -0.20254014
5.8765917 -3.1786404 -0.11601487
1.8426118 -1.4864933 -0.28598583
2.7961032 -1.5151242 -0.27464527
1.3258216 -1.0700315 -0.32408401
1.8211824 -0.98785162 -0.32229054
1.0659442 -0.86132693 -0.35735115
1.5962374 -0.86472595 -0.41078725
nan nan nan
38.90567 -20.962582 11.815851
9.9948044 -8.1085339 2.0306258
37.525902 -20.312328 8.27987
nan nan nan
nan nan nan
8.3893566 -6.8105636 0.18800604
nan nan nan
3.0173643 -2.4505899 -0.20188594
5.8435078 -3.1871803 -0.11557855
1.8431854 -1.4976151 -0.28689855
2.7864225 -1.522493 -0.27421033
1.3180863 -1.0717828 -0.32313082
1.8067054 -0.9886173 -0.32033727
1.0629313 -0.86504251 -0.35735115
1.5760828 -0.86099356 -0.40629163
nan nan nan
38.915028 -21.143219 11.841053
9.8995228 -8.0886784 2.0169528
nan nan nan
nan nan nan
nan nan nan
8.4003611 -6.8682919 0.18879139
nan nan nan
3.001065 -2.4547811 -0.20136258
5.8192005 -3.2003403 -0.11531677
1.8341085 -1.500894 -0.28629008
2.7767251 -1.5298129 -0.27377543
1.316234 -1.0779345 -0.32360744
1.8010788 -0.99372983 -0.31994662
1.050577 -0.86107987 -0.35412014
1.5645208 -0.86181062 -0.40404382
9.6859674 -7.9706717 2.8856258
38.432186 -21.055023 11.716336
9.7949686 -8.0604124 2.0013266
nan nan nan
nan nan nan
nan nan nan
8.3319607 -6.8610191 0.18778789
11.923342 -6.600811 0.71242315
2.9924781 -2.4652419 -0.20136258
5.7883124 -3.2097373 -0.1149241
1.8288581 -1.507287 -0.28629008
2.7670105 -1.5370835 -0.27334052
1.3107604 -1.08073 -0.32313082
1.8020949 -1.0020875 -0.32072794
1.0475649 -0.86474186 -0.35412014
1.5572375 -0.86491191 -0.40291992
9.6351004 -7.9825401 2.8783205
38.417122 -21.212698 11.733137
9.7244577 -8.0566101 1.9923416
37.799797 -20.966644 8.3875799
nan nan nan
nan nan nan
8.3572636 -6.928503 0.18887867
11.7989 -6.5831766 0.70627373
2.9785242 -2.4703677 -0.20097007
5.7639771 -3.2226126 -0.1146623
1.8143079 -1.5054132 -0.28476888
2.7575483 -1.5438238 -0.27290562
1.3032073 -1.0821588 -0.32217765
1.798586 -1.0083718 -0.32072794
1.0371205 -0.86220706 -0.35153532
1.537331 -0.8605963 -0.3984243
9.5679035 -7.9833446 2.8665195
38.59396 -21.486437 11.810036
9.6754217 -8.0731001 1.9880444
37.46933 -20.954744 8.330389
nan nan nan
nan nan nan
8.3330278 -6.957633 0.18887867
11.843313 -6.6622438 0.71032971
2.9660518 -2.4775465 -0.20070837
5.7314739 -3.2294536 -0.114226
1.8147504 -1.5165153 -0.28568161
2.7478013 -1.5509979 -0.27247071
1.2937795 -1.0819719 -0.32074788
1.7950553 -1.0146439 -0.32072794
1.0305561 -0.86253625 -0.35024291
1.5236945 -0.85999852 -0.39561453
9.5026836 -7.9853449 2.8552804
38.592438 -21.662392 11.832653
9.6188288 -8.0829916 1.9821844
37.077419 -20.905848 8.2593765
nan nan nan
38.725246 -21.906008 5.4507685
8.2933865 -6.9738054 0.18852961
11.787405 -6.685081 0.70836717
2.9440181 -2.4766283 -0.1997925
5.7071195 -3.2420411 -0.11396421
1.8075485 -1.5212413 -0.28537738
2.733705 -1.5556653 -0.27160087
1.2899948 -1.0864813 -0.32074788
1.7893543 -1.0196859 -0.32033727
1.0238503 -0.86300993 -0.34895051
1.5100812 -0.85931599 -0.39280477
9.4412842 -7.9901352 2.8451653
38.749905 -21.928976 11.904382
nan nan nan
37.008484 -21.037569 8.2603292
nan nan nan
38.609745 -22.018929 5.445292
8.2213116 -6.9623194 0.18743883
11.698967 -6.6890326 0.70444196
2.9372592 -2.4885046 -0.19992335
5.6691623 -3.248044 -0.11344064
1.7984442 -1.5243297 -0.28476888
2.7193375 -1.5607281 -0.27073106
1.289934 -1.0941569 -0.32170105
1.7836404 -1.0247004 -0.31994662
1.0206803 -0.8667568 -0.34895051
1.5026897 -0.86243105 -0.39168087
9.3762627 -7.9914341 2.8339264
38.778011 -22.123934 11.936692
nan nan nan
37.158409 -21.294727 8.3103724
nan nan nan
nan nan nan
nan nan nan
11.667882 -6.728127 0.70404941
2.9224243 -2.4943883 -0.19953083
5.649128 -3.2628183 -0.11326611
1.792845 -1.5309111 -0.28476888
2.7138731 -1.5702107 -0.27073106
1.2861068 -1.0986528 -0.32170105
1.7821921 -1.032153 -0.32033727
1.0121491 -0.86559749 -0.34701189
1.4827758 -0.85795653 -0.38718525
9.3136454 -7.9971752 2.8238113
nan nan nan
nan nan nan
37.273479 -21.542505 8.3537426
nan nan nan
nan nan nan
nan nan nan
11.493208 -6.6810384 0.69489068
2.9080219 -2.4996893 -0.1991383
5.6160936 -3.2699554 -0.1128298
1.7856102 -1.5355405 -0.28446463
2.6997628 -1.5746678 -0.26986125
1.2783548 -1.1001534 -0.32074788
1.7741268 -1.0361967 -0.31955594
1.0036386 -0.86438924 -0.34507325
1.4776642 -0.86190546 -0.38662329
9.2506685 -7.9993572 2.813134
nan nan nan
9.3355227 -8.072772 1.9470255
37.299843 -21.731773 8.3766184
nan nan nan
nan nan nan
nan nan nan
11.372867 -6.664351 0.68900287
2.8992789 -2.5098248 -0.1991383
5.5809231 -3.2756381 -0.11234986
1.7783649 -1.5401381 -0.28416041
2.6963985 -1.5853415 -0.27007872
1.2763593 -1.1062185 -0.32122445
1.7704991 -1.0423832 -0.31955594
1.0024374 -0.86947238 -0.34571949
1.4683371 -0.86337113 -0.38493744
9.1969728 -8.0091982 2.8052666
nan nan nan
9.2625999 -8.0663843 1.9376498
nan nan nan
nan nan nan
nan nan nan
nan nan nan
nan nan nan
2.8848572 -2.5150054 -0.19874579
5.552237 -3.2849288 -0.11200082
1.7711091 -1.5447037 -0.28385615
2.6779821 -1.5871438 -0.26877397
1.2614075 -1.1009717 -0.31836489
1.7625973 -1.0460463 -0.31877464
0.99213004 -0.86660069 -0.34313467
1.4527206 -0.86107314 -0.38156572
9.1396599 -8.0155487 2.7962754
nan nan nan
9.2158241 -8.0823832 1.9337434
nan nan nan
7.0331244 -6.1675487 0.81534195
nan nan nan
9.2694645 -8.135191 0.21466459
nan nan nan
2.8723102 -2.521764 -0.19848411
5.5214071 -3.2927809 -0.11160813
1.7619799 -1.5475985 -0.28324768
2.6660058 -1.5926597 -0.2681216
1.2575568 -1.1053681 -0.31836489
1.7525694 -1.0484037 -0.31760269
0.99272096 -0.87325394 -0.34442708
1.4434221 -0.86240768 -0.37987986
9.0951948 -8.0328875 2.7912178
nan nan nan
9.1412926 -8.0736303 1.9239769
36.671898 -21.883539 8.2865419
6.9891562 -6.1722741 0.81272727
nan nan nan
9.2035561 -8.1343851 0.21379197
nan nan nan
2.8578811 -2.5268111 -0.19809158
5.5077362 -3.3107476 -0.1115645
1.7584246 -1.5553851 -0.28355193
2.664701 -1.6045192 -0.26855651
1.2573622 -1.1130086 -0.31931809
1.7467816 -1.0532447 -0.31721202
0.98786122 -0.87510985 -0.34378085
1.4278613 -0.85993499 -0.37650815
9.0215998 -8.0241051 2.777169
nan nan nan
nan nan nan
36.925488 -22.209972 8.3613682
6.9675689 -6.1966329 0.81272727
nan nan nan
9.1247005 -8.121583 0.21261393
nan nan nan
2.8490434 -2.5367713 -0.19809158
5.4811749 -3.3208971 -0.11125909
1.7437266 -1.5532538 -0.2820307
2.6505601 -1.608655 -0.26768669
1.2534695 -1.1173909 -0.31931809
1.7430944 -1.0593356 -0.31721202
0.97580159 -0.8705011 -0.34054986
1.4185934 -0.861139 -0.37482232
8.9663229 -8.0311642 2.7687399
nan nan nan
nan nan nan
36.839336 -22.333643 8.3594608
6.9106541 -6.1893401 0.80858743
nan nan nan
nan nan nan
nan nan nan
2.8364553 -2.5433657 -0.1978299
5.4674153 -3.3387084 -0.11121546
1.7438315 -1.5643064 -0.28294346
2.6428022 -1.6166009 -0.26746926
1.2477371 -1.120118 -0.31884149
1.7351689 -1.0628437 -0.31643069
0.97275698 -0.87390202 -0.34054986
1.4114157 -0.86355436 -0.37369838
8.8966341 -8.0248785 2.7558148
40.421082 -24.591503 12.650747
nan nan nan
nan nan nan
6.8908553 -6.2150936 0.80880529
nan nan nan
nan nan nan
11.843536 -7.2772818 0.72668469
2.8220036 -2.5482292 -0.19743738
5.4450788 -3.3512297 -0.1109973
1.7346805 -1.5670542 -0.28233495
2.6371431 -1.6258161 -0.26746926
1.2383636 -1.1195228 -0.31741169
1.7335525 -1.0701865 -0.31682137
0.96970057 -0.87729228 -0.34054986
1.4063158 -0.86720312 -0.37313643
nan nan nan
40.17852 -24.636524 12.601637
nan nan nan
nan nan nan
6.9041395 -6.2709303 0.81294513
nan nan nan
nan nan nan
11.675823 -7.2305598 0.71791846
2.8112454 -2.5563836 -0.19730654
5.4333472 -3.3702159 -0.1109973
1.7236975 -1.568086 -0.28142226
2.6229823 -1.6297662 -0.26659942
1.2453253 -1.133764 -0.32027125
1.7277067 -1.0749315 -0.31643069
0.96663237 -0.8806718 -0.34054986
1.3929172 -0.86570638 -0.37032667
nan nan nan
nan nan nan
nan nan nan
nan nan nan
6.8913951 -6.3033996 0.81403464
38.669388 -24.074945 5.5806789
nan nan nan
11.690762 -7.2963729 0.72040439
2.7986238 -2.5628073 -0.19704486
5.4088273 -3.3812206 -0.11073551
1.7200418 -1.575771 -0.28172651
2.6130519 -1.6362751 -0.26616451
1.235939 -1.1331227 -0.31884149
1.721849 -1.0796487 -0.31604007
0.96532947 -0.88567597 -0.34119603
1.3816143 -0.8654142 -0.36807886
13.183182 -12.145464 4.1269789
nan nan nan
nan nan nan
nan nan nan
6.7869339 -6.251471 0.80422962
38.505238 -24.159674 5.569118
nan nan nan
11.802615 -7.423491 0.72890902
2.7823231 -2.5657868 -0.19652151
5.3842969 -3.3920949 -0.11047373
1.7127084 -1.5800812 -0.28142226
2.6052163 -1.6440604 -0.26594704
1.2301748 -1.135763 -0.31836489
1.7222506 -1.0882812 -0.31682137
0.95691782 -0.88411576 -0.33925745
1.3641398 -0.86117029 -0.36414522
13.085351 -12.140039 4.1095581
39.447834 -24.760658 12.45301
8.7295332 -8.0980444 1.8782701
nan nan nan
6.6902227 -6.2056675 0.79529619
38.458424 -24.317801 5.5745945
nan nan nan
11.738667 -7.440599 0.72655386
2.7696929 -2.572084 -0.19625983
5.3682013 -3.4081926 -0.11038646
1.6980995 -1.577598 -0.27990103
2.5952544 -1.6504774 -0.26551217
1.2226118 -1.136704 -0.31741169
1.7059265 -1.0863564 -0.31447744
0.95559144 -0.88909817 -0.33990362
1.3590662 -0.86462498 -0.36358324
nan nan nan
39.410156 -24.92919 12.468518
8.6488914 -8.0795746 1.8669411
12.498139 -7.9431195 2.8690968
6.6612406 -6.2221813 0.79442459
38.555382 -24.567894 5.6010633
nan nan nan
11.693684 -7.4694395 0.72537631
2.7570524 -2.5783241 -0.19599815
5.3330998 -3.4121084 -0.10990652
1.6907716 -1.5818192 -0.27959681
2.5873787 -1.6581857 -0.2652947
1.2132677 -1.1359267 -0.31598189
1.702124 -1.0923046 -0.31447744
0.94896221 -0.88912076 -0.33861122
1.3457674 -0.86281949 -0.3607735
nan nan nan
39.286236 -25.04324 12.456886
8.5810747 -8.0724869 1.8583468
12.435198 -7.9642076 2.8609946
6.6938925 -6.2965984 0.80096126
38.484005 -24.711712 5.6031928
8.6669044 -8.158987 0.20716006
11.453367 -7.3724542 0.71203065
2.7534854 -2.5930698 -0.19639066
5.3085461 -3.4225857 -0.10964473
1.690654 -1.5928206 -0.28050953
2.5773861 -1.664511 -0.2648598
1.2164303 -1.1468974 -0.31788832
1.6941477 -1.095567 -0.31369612
0.94234473 -0.88910794 -0.33731881
1.3304477 -0.8596155 -0.35740176
nan nan nan
39.257507 -25.218071 12.475627
8.499074 -8.0514355 1.8466272
12.335137 -7.9610114 2.8443139
6.6881413 -6.3353434 0.80292225
38.526684 -24.929461 5.6220555
8.6147938 -8.1668301 0.20659284
11.427563 -7.4123878 0.71203065
2.7353642 -2.5940711 -0.19573647
5.2902761 -3.4370143 -0.10951385
1.6796874 -1.5935843 -0.27959681
2.5673816 -1.6707871 -0.26442489
1.2070861 -1.1460611 -0.31645852
1.6944569 -1.1041609 -0.31447744
0.93399042 -0.88739377 -0.33538023
1.3253937 -0.86293125 -0.35683981
nan nan nan
39.376049 -25.488789 12.54154
8.4298296 -8.0418453 1.837642
12.24554 -7.9638996 2.8300159
6.6912103 -6.3827219 0.8059727
nan nan nan
8.5717707 -8.1830416 0.20624381
11.474777 -7.5000153 0.71661007
2.7299016 -2.6070538 -0.19599815
5.2656918 -3.4472544 -0.10925206
1.6723217 -1.5977222 -0.27929255
2.5615337 -1.6797389 -0.26442489
1.2066219 -1.1536635 -0.31741169
1.6843908 -1.1060169 -0.31330547
0.93262953 -0.89232069 -0.3360264
1.3121699 -0.86090088 -0.35403004
nan nan nan
39.313133 -25.64323 12.54994
8.4177313 -8.0866203 1.8411579
12.168393 -7.9743271 2.8185778
6.7568812 -6.4905977 0.81664932
nan nan nan
8.4440613 -8.1176186 0.20384409
11.371366 -7.4892416 0.71176898
2.7153888 -2.6113727 -0.19560564
5.2452769 -3.4601145 -0.10907754
1.661374 -1.5983843 -0.27837983
2.5556548 -1.6886699 -0.26442489
1.1990557 -1.1544601 -0.31645852
1.6825823 -1.1132478 -0.31369612
0.93298244 -0.89892727 -0.33731881
1.3071208 -0.86413854 -0.35346812
nan nan nan
39.130543 -25.719297 12.520215
8.3699331 -8.0970659 1.8368608
12.081079 -7.9775558 2.8047566
6.7860842 -6.5643687 0.82296813
38.902905 -25.754736 5.7160659
nan nan nan
nan nan nan
2.7044644 -2.6190975 -0.19547479
5.2185874 -3.4687274 -0.10877212
1.6611269 -1.6093582 -0.27929255
2.5414441 -1.6920719 -0.26355505
1.1950184 -1.1586386 -0.31645852
1.6725131 -1.1150192 -0.31252417
0.92637736 -0.89880985 -0.3360264
1.302065 -0.86735141 -0.35290614
nan nan nan
39.056633 -25.866398 12.525385
8.3097858 -8.0952129 1.829829
12.002069 -7.9857078 2.7928417
6.6329236 -6.461132 0.80706221
38.845795 -25.912405 5.7209339
nan nan nan
nan nan nan
2.686373 -2.6198022 -0.19482058
5.1981363 -3.4813652 -0.10859759
1.6537242 -1.6134124 -0.27898833
2.5313814 -1.6981641 -0.26312014
1.1944747 -1.1662358 -0.31741169
1.6706636 -1.1222227 -0.31291485
0.92323422 -0.90203804 -0.3360264
1.2888962 -0.86513317 -0.3500964
nan nan nan
38.954052 -25.99453 12.521507
nan nan nan
11.925186 -7.9947715 2.7814033
6.4770126 -6.3534188 0.79072052
38.860146 -26.118431 5.7364502
6.8961501 -6.7694631 0.16806667
nan nan nan
2.6736512 -2.625663 -0.19455892
5.1693683 -3.4883151 -0.10824855
1.6463135 -1.6174346 -0.27868408
2.5233731 -1.7055985 -0.26290271
1.1834044 -1.1635079 -0.31550533
1.66264 -1.1252888 -0.31213349
0.92351788 -0.90864795 -0.33731881
1.2798027 -0.86555088 -0.34841052
11.7515 -11.610168 3.8027322
38.820988 -26.102051 12.507937
nan nan nan
11.838219 -7.996531 2.7675822
6.5681691 -6.4880247 0.80466545
38.937233 -26.367996 5.7613978
6.7107406 -6.633553 0.16409625
nan nan nan
2.6591465 -2.6297107 -0.19416638
5.1468196 -3.4993186 -0.10803039
1.638895 -1.6214248 -0.27837983
2.5153432 -1.7129974 -0.26268524
1.179336 -1.1676316 -0.31550533
1.6587019 -1.1310858 -0.31213349
0.91862756 -0.91016382 -0.33667263
1.2727392 -0.86728156 -0.34728661
11.802419 -11.742188 3.8325157
38.797619 -26.283449 12.529908
nan nan nan
11.747325 -7.9950199 2.7528079
6.7467303 -6.7111793 0.82950479
38.933102 -26.563879 5.7744803
6.6680608 -6.6375356 0.1636163
nan nan nan
2.6446469 -2.6336892 -0.19377387
5.1201305 -3.5073853 -0.10772497
1.6261995 -1.6201246 -0.27716288
2.5052371 -1.7189552 -0.26225033
1.173517 -1.1700063 -0.31502873
1.6465899 -1.1312941 -0.3105709
0.91373765 -0.91165656 -0.3360264
1.2576296 -0.8634823 -0.3439149
11.797493 -11.819525 3.8443167
39.098621 -26.686893 12.65721
nan nan nan
11.662661 -7.9971356 2.7394631
nan nan nan
38.786968 -26.663076 5.7665696
6.6324954 -6.6483812 0.16331089
nan nan nan
2.6371996 -2.6446733 -0.19390471
5.0934486 -3.5153081 -0.10741955
1.6222845 -1.6275501 -0.27746713
2.4971709 -1.7262765 -0.2620329
1.1694257 -1.1740955 -0.31502873
1.6405973 -1.1356343 -0.31018025
0.91054982 -0.91484046 -0.3360264
1.2505926 -0.86510748 -0.34279102
11.800746 -11.905622 3.8589275
nan nan nan
nan nan nan
11.559948 -7.9862084 2.7218292
nan nan nan
nan nan nan
6.6092482 -6.6714926 0.16331089
nan nan nan
2.6209285 -2.6467633 -0.19338135
5.0729337 -3.5273643 -0.10724504
1.6165935 -1.6332031 -0.27746713
2.4870381 -1.7321421 -0.26159796
1.1635965 -1.1764238 -0.31455213
1.6325659 -1.1385384 -0.30939892
0.90565586 -0.91629326 -0.33538023
1.2515707 -0.8722412 -0.3439149
11.803541 -11.991886 3.8735385
nan nan nan
nan nan nan
11.471559 -7.9844718 2.7075312
nan nan nan
nan nan nan
6.52633 -6.6339254 0.16182743
nan nan nan
2.6099241 -2.654115 -0.19325051
5.0462518 -3.5350225 -0.10693961
1.6091446 -1.6370649 -0.27716288
2.4748542 -1.7365308 -0.26094562
1.1594828 -1.1804782 -0.31455213
1.6306055 -1.145645 -0.30978957
0.90245181 -0.91944897 -0.33538023
1.2425247 -0.87242329 -0.34222904
11.80758 -12.080056 3.888711
nan nan nan
nan nan nan
11.425529 -8.0117912 2.7032418
6.2937984 -6.4377952 0.78461957
nan nan nan
6.5048804 -6.6584549 0.16187106
nan nan nan
2.5936704 -2.6560607 -0.19272715
5.0277514 -3.548296 -0.10680872
1.6034205 -1.6426721 -0.27716288
2.4687772 -1.745159 -0.26094562
1.1553551 -1.1845185 -0.31455213
1.6265965 -1.1513299 -0.30978957
0.89418757 -0.91739762 -0.33344159
1.2374789 -0.87535453 -0.34166712
11.631318 -11.983091 3.8443167
nan nan nan
nan nan nan
11.353386 -8.0204878 2.6927569
6.2626162 -6.4507895 0.78353012
nan nan nan
6.4937787 -6.6936817 0.16217647
nan nan nan
2.5826461 -2.663305 -0.1925963
5.0031056 -3.5571432 -0.10654694
1.5925 -1.6429095 -0.27625015
2.4606397 -1.7523242 -0.26072815
1.1529188 -1.1903088 -0.31502873
1.6185402 -1.1541429 -0.30900827
0.89936501 -0.92920256 -0.33667263
1.2284514 -0.87544572 -0.33998123
nan nan nan
nan nan nan
nan nan nan
nan nan nan
6.3402934 -6.576623 0.79616773
nan nan nan
6.4374309 -6.6820993 0.16134749
nan nan nan
2.5629489 -2.6615088 -0.19181128
4.9845586 -3.5702236 -0.10641604
1.5867554 -1.6484584 -0.27625015
2.4464047 -1.7551079 -0.25985834
1.1419599 -1.1872432 -0.31312233
1.610484 -1.1569135 -0.30822694
0.88943219 -0.92536151 -0.33408782
1.2174551 -0.87407011 -0.33773342
nan nan nan
nan nan nan
nan nan nan
nan nan nan
6.3052449 -6.5861192 0.79464245
8.9222536 -6.4169049 1.3432207
6.4918079 -6.7858238 0.16331089
nan nan nan
2.5553675 -2.6722441 -0.19194211
4.9497561 -3.5715284 -0.1059361
1.5775653 -1.6503967 -0.27564168
2.4402635 -1.7636367 -0.25985834
1.1411947 -1.1947755 -0.31407553
1.6104434 -1.1654141 -0.30900827
0.89452088 -0.937208 -0.33731881
1.2143967 -0.8783145 -0.33773342
nan nan nan
nan nan nan
nan nan nan
37.548344 -27.106312 8.986659
6.3834367 -6.7146029 0.80749792
8.8475399 -6.4101796 1.3353105
6.4973421 -6.8392563 0.16405261
nan nan nan
2.540869 -2.6757138 -0.19154958
4.9311905 -3.5843806 -0.10580521
1.5717946 -1.6558934 -0.27564168
2.4320765 -1.7706813 -0.25964087
1.1403909 -1.2023168 -0.31502873
1.602368 -1.1681285 -0.30822694
0.88792652 -0.93681413 -0.3360264
1.2014571 -0.87540615 -0.33492368
nan nan nan
nan nan nan
nan nan nan
37.528927 -27.292053 9.0047703
6.2044144 -6.5720148 0.78767002
8.7830057 -6.4103217 1.3289216
6.4665694 -6.8546205 0.16387808
nan nan nan
2.5298021 -2.6827497 -0.19141875
4.9025059 -3.5897698 -0.10545616
1.5643046 -1.6595631 -0.27533746
2.42186 -1.7762204 -0.25920597
1.1311452 -1.2009249 -0.31359896
1.6002743 -1.1751716 -0.30861759
0.8879562 -0.94343001 -0.33731881
1.2003622 -0.88102996 -0.33548561
nan nan nan
40.615532 -29.633965 13.443641
nan nan nan
37.587864 -27.535999 9.0419445
6.2427425 -6.6590543 0.79551405
8.7625751 -6.4424095 1.3292257
nan nan nan
8.7198067 -6.4226971 0.56575167
2.5221274 -2.693387 -0.19154958
4.8839068 -3.6024141 -0.10532527
1.5568079 -1.6632003 -0.27503321
2.411634 -1.7817096 -0.25877106
1.1235976 -1.2012775 -0.31264576
1.5901968 -1.1763587 -0.30744565
0.87642545 -0.93768972 -0.33408782
1.1992429 -0.88665682 -0.33604759
nan nan nan
40.358105 -29.662584 13.392591
nan nan nan
37.48164 -27.659752 9.0395613
nan nan nan
8.7260714 -6.4626255 1.327096
nan nan nan
8.6471939 -6.4159265 0.56248063
2.5127106 -2.7021747 -0.19154958
4.8632731 -3.6134832 -0.10515074
1.5493047 -1.6668055 -0.27472895
2.4033999 -1.788633 -0.25855359
1.1244019 -1.2105926 -0.31407553
1.5900477 -1.1848441 -0.30822694
0.87970799 -0.9478336 -0.33667263
1.1941823 -0.88938844 -0.33548561
nan nan nan
40.246552 -29.797533 13.390006
nan nan nan
37.67244 -28.004148 9.1091433
nan nan nan
8.5980139 -6.4144487 1.3109713
nan nan nan
8.546731 -6.387815 0.55737787
2.4981847 -2.7054241 -0.19115707
4.8406181 -3.6229556 -0.10493258
1.5417956 -1.6703786 -0.2744247
2.3931515 -1.7940298 -0.25811869
1.1168456 -1.2108983 -0.31312233
1.577989 -1.184476 -0.30666435
0.87475997 -0.94912016 -0.3360264
1.1910704 -0.89355153 -0.33548561
7.3937306 -8.0547152 2.5141752
40.266201 -30.03023 13.431363
7.4359155 -8.1007061 1.7341185
37.588211 -28.145777 9.1124802
nan nan nan
8.3930101 -6.3073525 1.2829812
nan nan nan
8.580246 -6.4596305 0.56104141
2.4819803 -2.706764 -0.19063371
4.8139625 -3.6293075 -0.10462717
1.5359555 -1.6757501 -0.2744247
2.3848848 -1.8008748 -0.25790125
1.1076456 -1.2093544 -0.31169257
1.5777911 -1.1929464 -0.30744565
0.86981374 -0.95038402 -0.33538023
1.1859961 -0.89624113 -0.33492368
7.3442407 -8.0570679 2.50687
40.313683 -30.285181 13.482414
7.3959517 -8.1138363 1.7313839
nan nan nan
6.1424494 -6.738204 0.79464245
8.2977142 -6.2812295 1.2717243
7.43817 -8.1659203 0.19219461
8.5795336 -6.5061259 0.56248063
2.4741967 -2.7172582 -0.19076456
4.7913055 -3.6385379 -0.10440902
1.5300965 -1.6811014 -0.2744247
2.3746154 -1.8061793 -0.25746635
1.1050665 -1.2150308 -0.31216916
1.5736173 -1.1984466 -0.30744565
0.86162615 -0.94804549 -0.33344159
1.1848032 -0.90184492 -0.33548561
7.2948232 -8.0591726 2.4995646
40.390682 -30.564144 13.543803
7.3311353 -8.0993214 1.7227894
nan nan nan
6.0754457 -6.7115893 0.78897738
8.2875814 -6.3191776 1.2735498
7.3861504 -8.1658783 0.19158378
8.6341724 -6.5951052 0.56758338
2.4613497 -2.7221725 -0.19050287
4.7746024 -3.6522067 -0.10432176
1.519232 -1.6809052 -0.27351201
2.360379 -1.8084108 -0.25659654
1.1024613 -1.2207041 -0.31264576
1.5694244 -1.2039323 -0.30744565
0.859927 -0.95284259 -0.33408782
1.1738969 -0.90007037 -0.3332378
7.2389684 -8.0537815 2.4900112
40.208839 -30.647856 13.518601
nan nan nan
10.503077 -8.0417986 2.56217
6.0153613 -6.6919999 0.78418374
8.2516928 -6.3374939 1.2714201
7.3292112 -8.1599922 0.19084205
8.5556774 -6.5826006 0.5639199
2.4484985 -2.7270308 -0.1902412
4.7459745 -3.6566579 -0.10397271
1.519979 -1.6935906 -0.27472895
2.3520777 -1.8151202 -0.25637907
1.0998299 -1.2263739 -0.31312233
1.5612974 -1.2063928 -0.30666435
0.8565957 -0.95583856 -0.33408782
1.1688154 -0.90267968 -0.33267587
7.202703 -8.0699139 2.4872017
40.078625 -30.770382 13.510847
nan nan nan
10.432176 -8.045455 2.5516851
6.0002561 -6.722249 0.78527325
8.1745462 -6.32377 1.2629013
7.2757311 -8.1575403 0.19018759
8.54844 -6.6246538 0.56496662
2.4323227 -2.7281039 -0.18971784
4.7233024 -3.6655467 -0.10375455
1.5107591 -1.6951783 -0.27412048
2.3476965 -1.824845 -0.25659654
1.0906525 -1.2247016 -0.31169257
1.559029 -1.2133474 -0.307055
0.86126781 -0.96785545 -0.33731881
1.1733669 -0.91271281 -0.33492368
7.1518736 -8.0694799 2.4793344
40.024464 -30.951454 13.52894
36.444019 -41.13171 8.6885624
10.361379 -8.0487146 2.5411999
6.0279522 -6.80094 0.79202777
8.2836113 -6.4543939 1.2832855
7.2240143 -8.1566868 0.18957676
8.5252638 -6.6544523 0.56496662
2.422785 -2.7365775 -0.18971784
4.7045674 -3.6773987 -0.10362366
1.5048326 -1.7004415 -0.27412048
2.335422 -1.828432 -0.25594413
1.0912415 -1.2340221 -0.31312233
1.556731 -1.2203009 -0.30744565
0.85628778 -0.96904385 -0.33667263
1.1663294 -0.91381019 -0.33379978
7.0995259 -8.0669603 2.4709048
39.931427 -31.10285 13.53411
36.272491 -41.227154 8.681921
10.277152 -8.0409966 2.5273788
nan nan nan
8.3293762 -6.536859 1.2939339
7.1773443 -8.1612034 0.18909682
8.4803867 -6.6672063 0.56352741
2.4099231 -2.741266 -0.18945615
4.6799107 -3.6845295 -0.10336187
1.495615 -1.7019532 -0.27351201
2.3270671 -1.8350337 -0.2557267
1.083693 -1.2341318 -0.31216916
1.5505203 -1.2242018 -0.307055
0.84812957 -0.96657389 -0.33473399
1.1631325 -0.91787595 -0.33379978
7.0569 -8.075182 2.4658473
39.845417 -31.259932 13.541864
nan nan nan
nan nan nan
nan nan nan
8.2850866 -6.5489774 1.2905872
7.1241546 -8.1579609 0.18844235
8.5236311 -6.7494354 0.56797594
2.3986988 -2.7477801 -0.1893253
4.6513429 -3.6884303 -0.10301282
1.4880351 -1.7052923 -0.27320775
2.3147898 -1.8385078 -0.25507432
1.0793785 -1.2379071 -0.31216916
1.5520463 -1.2342041 -0.30822694
0.84475046 -0.96952856 -0.33473399
1.1580098 -0.92042065 -0.3332378
6.9951482 -8.0611229 2.4540465
nan nan nan
nan nan nan
nan nan nan
nan nan nan
8.1534252 -6.491354 1.2735498
7.0727124 -8.1563368 0.18783152
8.4570646 -6.7449179 0.56509745
2.3841898 -2.7504745 -0.18893279
4.6267138 -3.6952934 -0.10275104
1.4853201 -1.7142298 -0.27381623
2.3025165 -1.8419183 -0.25442198
1.0750508 -1.2416673 -0.31216916
1.5496595 -1.2411532 -0.30861759
0.83820617 -0.96881384 -0.33344159
1.1566962 -0.92597371 -0.33379978
6.9510694 -8.0670347 2.448427
nan nan nan
nan nan nan
38.453457 -30.724852 9.5518999
nan nan nan
8.0493803 -6.4546118 1.2607716
7.024631 -8.1582422 0.18730794
8.3731108 -6.7259545 0.56104141
2.3729465 -2.756887 -0.18880194
4.6020932 -3.7020295 -0.10248926
1.4744768 -1.7137569 -0.27290353
2.2921894 -1.8468251 -0.25398704
1.0739056 -1.249138 -0.31312233
1.5414666 -1.2434633 -0.30783629
0.83639026 -0.97356808 -0.33408782
1.1515558 -0.92848253 -0.3332378
6.9038677 -8.0690336 2.4416835
nan nan nan
36.739788 -42.953083 8.9366283
38.596455 -31.060427 9.6143341
nan nan nan
8.0287313 -6.4842291 1.261076
6.9749975 -8.1580105 0.18674074
8.3728809 -6.7739754 0.56261152
2.3552036 -2.7556598 -0.18814775
4.5833125 -3.7133553 -0.10235836
1.4652653 -1.7151173 -0.27229503
2.2818563 -1.8516827 -0.25355214
1.0631738 -1.2454054 -0.31121597
1.540957 -1.2519417 -0.30861759
0.83142215 -0.97464204 -0.33344159
1.1520995 -0.93555611 -0.3343617
6.852006 -8.0652323 2.4332542
nan nan nan
36.677544 -43.184589 8.9581146
38.53928 -31.236685 9.627202
nan nan nan
8.0233793 -6.5262995 1.2638141
6.9351573 -8.1689672 0.18643533
8.4111385 -6.8536 0.56679839
2.3471844 -2.7657685 -0.18827859
4.5509434 -3.7135429 -0.10192204
1.4608731 -1.7221153 -0.27259928
2.273448 -1.8580633 -0.2533347
1.0572352 -1.2472352 -0.3107394
1.5327482 -1.2541943 -0.30783629
0.83113134 -0.98122859 -0.33473399
1.1488267 -0.93957192 -0.3343617
