# .PCD v0.7 - Point Cloud Data file format
VERSION 0.7
FIELDS x y z
SIZE 4 4 4
TYPE F F F
COUNT 1 1 1
WIDTH 1548
HEIGHT 1
VIEWPOINT 0 0 0 1 0 0 0
POINTS 1548
DATA ascii
5.1280298 -3.9563348 1.2510597
3.2843778 -3.6782951 0.42837048
5.0456376 -3.9040673 0.77794236
3.9870431 -4.4689908 0.10392907
5.0465379 -3.9131908 0.33285666
nan nan nan
5.298286 -4.1110678 -0.11645117
2.7725661 -3.1133919 -0.50686431
4.4128623 -3.4250205 -0.48470646
1.7560432 -1.9729284 -0.50614297
2.428077 -1.8858002 -0.48089653
1.3020318 -1.464649 -0.51502508
1.714977 -1.3313167 -0.4928323
3.2457612 -3.6606288 1.1205331
31.98284 -24.733936 10.809065
3.2537153 -3.669625 0.77037203
5.0902309 -3.9570451 1.2453405
3.2599573 -3.6766889 0.42684525
5.0058393 -3.9027178 0.77398717
3.9399369 -4.4473224 0.10310008
5.0111918 -3.9138939 0.33141744
5.4280186 -6.1345706 -0.42745388
5.2917857 -4.1356893 -0.1166257
2.7666106 -3.1286297 -0.50777704
4.4087329 -3.4465327 -0.4855763
1.7520474 -1.9830321 -0.50709617
2.4230957 -1.8962058 -0.48128721
1.3001043 -1.4728093 -0.51631749
1.7083975 -1.3357987 -0.49227038
3.2217 -3.6591334 1.1165996
31.793413 -24.765299 10.77417
3.2245758 -3.6624205 0.76646549
nan nan nan
3.230653 -3.669347 0.42466635
4.964848 -3.8987324 0.76972783
nan nan nan
4.9621601 -3.9036031 0.32906231
5.4246936 -6.1741152 -0.42889315
5.2910728 -4.1649485 -0.11693112
2.757309 -3.1401329 -0.5080812
4.4025497 -3.4665182 -0.48622862
1.737029 -1.979906 -0.50471324
2.4261699 -1.9122807 -0.48324049
1.2949553 -1.4773384 -0.51631749
1.7094753 -1.3462634 -0.49395624
3.1976891 -3.6575148 1.1126659
31.794186 -24.944691 10.803896
3.2036493 -3.6643562 0.76451224
nan nan nan
3.2096324 -3.6712236 0.42357689
4.9265723 -3.8951864 0.76577276
nan nan nan
4.9308829 -3.9069593 0.32788476
5.3932638 -6.1817236 -0.42810807
5.2843418 -4.1895995 -0.11710564
2.7512207 -3.1553519 -0.50899398
4.3982329 -3.488049 -0.48709846
1.7336758 -1.9893579 -0.50566638
2.414006 -1.9157196 -0.48206854
1.2913743 -1.4836729 -0.51696372
1.6952068 -1.3446733 -0.49114645
3.1695769 -3.6496999 1.1070464
31.777624 -25.102373 10.826512
3.1817701 -3.66377 0.76216835
11.681767 -9.2680321 2.8891137
3.1853743 -3.6692359 0.42205167
4.897408 -3.9000046 0.76333886
nan nan nan
4.8925138 -3.9030671 0.32618386
5.3776383 -6.2052355 -0.42850062
5.2872739 -4.2220459 -0.11749832
2.7439897 -3.168211 -0.50960243
4.3924842 -3.5072718 -0.48775086
1.7315348 -2.0009682 -0.50709617
2.4130971 -1.9287508 -0.48324049
1.2814553 -1.4826853 -0.51502508
1.6964585 -1.3548357 -0.4928323
3.1504576 -3.6533599 1.1047986
31.780527 -25.285309 10.85753
3.1592903 -3.6636298 0.75982434
11.708792 -9.356226 2.9038882
3.1683121 -3.6741185 0.42139801
4.8605227 -3.8984621 0.7596879
3.4933307 -4.0541925 0.092803173
4.8418612 -3.8904374 0.32369789
5.3510609 -6.2182908 -0.42810807
5.2802997 -4.246737 -0.11767285
2.7312965 -3.1758876 -0.50929821
4.3854256 -3.5280263 -0.48840317
1.7277358 -2.0107253 -0.50804937
2.4063499 -1.9371622 -0.48324049
1.2762718 -1.4871495 -0.51502508
1.6895804 -1.3595215 -0.49227038
3.1218486 -3.6458249 1.099179
31.776892 -25.464039 10.88661
3.1368508 -3.6633778 0.75748044
11.697097 -9.4139595 2.9091306
3.1386371 -3.66678 0.41921914
4.8256388 -3.8982675 0.75634128
3.4410951 -4.0232649 0.091799647
4.8178606 -3.90031 0.32304367
5.3314762 -6.2416592 -0.42836976
5.288764 -4.2840075 -0.11819642
2.7244689 -3.1915412 -0.51021093
4.3808289 -3.5495782 -0.48927301
1.7143402 -2.0092714 -0.50614297
2.4034138 -1.9486548 -0.48402178
1.2648146 -1.4842367 -0.51244026
1.6886159 -1.3684703 -0.49339426
3.1068881 -3.6553857 1.0986171
nan nan nan
3.1170094 -3.6673222 0.75591785
11.681581 -9.4722204 2.9138966
3.1209819 -3.6720188 0.41856545
4.7869644 -3.8947484 0.75238615
3.417326 -4.0238175 0.091537863
4.7519426 -3.8745461 0.319511
5.3048124 -6.254518 -0.42797726
nan nan nan
2.7133117 -3.2010319 -0.51021093
4.3761349 -3.5711408 -0.49014282
1.7104861 -2.0189908 -0.50709617
2.4004273 -1.9601504 -0.48480311
1.2627422 -1.4923328 -0.51373267
1.6819383 -1.3728199 -0.4928323
3.0821836 -3.6507726 1.0941215
nan nan nan
3.0841322 -3.6531014 0.75083929
11.693842 -9.5465879 2.9248583
3.0936956 -3.6657553 0.41660443
4.7579765 -3.8988638 0.74995226
3.4007411 -4.0313048 0.091450602
4.7506533 -3.8997786 0.32029605
5.280827 -6.2682567 -0.42771557
nan nan nan
2.7058766 -3.21381 -0.51081938
4.3719711 -3.5919509 -0.49101266
1.700271 -2.0211909 -0.50614297
2.3992987 -1.9732145 -0.48597506
1.2559738 -1.4948812 -0.5130865
1.6811476 -1.3814753 -0.49395624
3.0616004 -3.6521719 1.0913117
4.8754358 -3.9965 1.6775472
3.0650201 -3.6562734 0.7492767
11.686994 -9.6091614 2.9315305
3.076725 -3.6702666 0.4159508
4.7251878 -3.8996675 0.74690986
3.3978796 -4.0565691 0.091756016
4.7639656 -3.9385889 0.32212779
5.2573133 -6.2847362 -0.42758477
nan nan nan
2.6930504 -3.2213309 -0.51051515
4.362617 -3.611124 -0.49144757
1.7010652 -2.0365372 -0.50852597
2.3866844 -1.9768606 -0.48480311
1.2538385 -1.5029682 -0.51437891
1.6723132 -1.3845285 -0.4928323
3.0363717 -3.6478531 1.0868161
4.857728 -4.0104218 1.6762547
3.0427642 -3.6555586 0.74693274
11.689301 -9.6796265 2.9405859
3.0489228 -3.6642835 0.41398978
4.6943612 -3.9018755 0.74417168
3.419728 -4.1132169 0.092759535
4.8819413 -4.066175 0.33115575
nan nan nan
4.7385149 -3.9496808 -0.10707051
2.6859772 -3.2369111 -0.51142788
4.3538132 -3.6295164 -0.49188244
1.6955112 -2.0443525 -0.50900251
2.3816679 -1.9867586 -0.48519379
1.245507 -1.5036129 -0.5130865
1.6730932 -1.3950258 -0.49451819
3.0121257 -3.6458073 1.0828824
4.8151293 -4.0050545 1.6665617
3.0230579 -3.6590695 0.74537015
11.68956 -9.752265 2.9496412
3.031357 -3.6691418 0.4133361
4.6533775 -3.8967712 0.73991233
3.453068 -4.1829748 0.094068468
4.8906851 -4.1024289 0.33272585
nan nan nan
4.6978798 -3.9437175 -0.10645968
2.676239 -3.2481828 -0.5117321
4.3449345 -3.647892 -0.49231738
1.6911238 -2.0543449 -0.50995576
2.3743701 -1.9954745 -0.48519379
1.2417829 -1.509818 -0.51373267
1.670082 -1.40242 -0.49508011
2.9885712 -3.643111 1.0789487
4.7807426 -4.0047941 1.6594535
3.0024402 -3.6600509 0.74341685
11.674242 -9.8087912 2.954407
3.0106368 -3.6700702 0.41224667
4.6169696 -3.8938103 0.73626143
3.4495325 -4.208539 0.094373882
4.8896928 -4.1307435 0.33364171
nan nan nan
4.6688046 -3.9471927 -0.10611062
2.6727359 -3.2671113 -0.51325327
4.3397875 -3.6694627 -0.49318722
1.6808389 -2.056433 -0.50900251
2.3768256 -2.0117128 -0.48714703
1.2334538 -1.5103995 -0.51244026
1.6707668 -1.4129485 -0.496766
2.9681478 -3.644074 1.076139
4.7501106 -4.0074544 1.6536378
2.9849699 -3.6647635 0.7422449
11.692401 -9.8938541 2.9677517
2.9915192 -3.6728301 0.41137511
4.5825324 -3.8922489 0.73291481
3.4521694 -4.2418866 0.094853826
4.8904657 -4.1607184 0.33468843
4.5823431 -5.6375928 -0.3789123
4.6378579 -3.948894 -0.10571795
2.6628792 -3.278348 -0.51355755
4.332644 -3.6894281 -0.49383956
1.6751955 -2.0641942 -0.50947911
2.3660259 -2.0167992 -0.48636574
1.2357699 -1.5240825 -0.51567131
1.6621088 -1.4156208 -0.49564207
2.9492855 -3.6468334 1.0738912
4.7176766 -4.0083876 1.6471757
2.9597442 -3.659796 0.73911965
11.669004 -9.9441566 2.9706113
2.9661584 -3.6677535 0.40963197
4.5500488 -3.8921051 0.72987241
nan nan nan
4.891088 -4.1907482 0.33573514
4.5375576 -5.6224623 -0.37681887
4.578476 -3.9260428 -0.1046708
2.6560903 -3.2934198 -0.51447028
4.321631 -3.7061491 -0.494057
1.6710569 -2.0738535 -0.51043236
2.3702273 -2.0346797 -0.48870963
1.2304423 -1.528387 -0.51567131
1.6645665 -1.4277422 -0.49788988
2.9310768 -3.6489947 1.0716434
4.682322 -4.0051885 1.6394211
2.9460456 -3.6676648 0.738729
11.675089 -10.016343 2.9806197
2.9493029 -3.6717427 0.40897834
4.510776 -3.8845234 0.72561306
nan nan nan
4.8922973 -4.2199793 0.33678186
4.5095224 -5.6257882 -0.37603384
4.5287757 -3.9109867 -0.10384181
2.6513557 -3.3099589 -0.51568723
4.3067818 -3.7195854 -0.49383956
1.6672347 -2.0832176 -0.5113855
2.363467 -2.0425284 -0.48870963
1.2235937 -1.5307848 -0.51502508
1.6503385 -1.4256014 -0.49508011
2.9107311 -3.649678 1.0688336
4.6573277 -4.0120597 1.6355439
2.9178367 -3.6586146 0.73482245
11.690207 -10.100341 2.9934878
2.9280665 -3.6727874 0.40788886
4.4765544 -3.8823774 0.72226638
3.1709368 -3.9805415 0.088221908
4.8786826 -4.2395182 0.33691272
4.4686728 -5.6168752 -0.3743329
4.5207577 -3.9316881 -0.10397271
2.6376634 -3.3177116 -0.51538301
4.303174 -3.7427616 -0.49492684
1.6660542 -2.0967147 -0.5132919
2.3563228 -2.050766 -0.48870963
1.2182428 -1.5350466 -0.51502508
1.6471936 -1.4329485 -0.49564207
2.8837347 -3.6431258 1.063776
4.6352901 -4.0227761 1.632959
2.8982806 -3.6615376 0.73325986
nan nan nan
2.9075038 -3.673219 0.40679944
4.4517541 -3.8881943 0.72044098
3.1585729 -3.9935467 0.088265538
4.8694935 -4.2614503 0.33730522
4.4397578 -5.6206822 -0.37354788
4.4599662 -3.9063072 -0.10288193
2.6291392 -3.3307953 -0.51599145
4.2919579 -3.7593987 -0.49514428
1.660244 -2.1044457 -0.51376849
2.3491499 -2.0589786 -0.48870963
1.2143698 -1.5411881 -0.51567131
1.6403458 -1.437088 -0.49508011
2.8671231 -3.6469214 1.0620902
4.6146455 -4.0317745 1.6303743
2.8754447 -3.6575351 0.7305252
nan nan nan
2.8838978 -3.6696343 0.40527421
4.4306965 -3.8971605 0.71922398
3.1406822 -3.9981 0.088134646
4.8665819 -4.2874694 0.33809027
4.4087701 -5.619657 -0.37250116
4.4613104 -3.9350681 -0.10323098
2.6211398 -3.3434024 -0.51659995
4.2869449 -3.7801933 -0.49601412
1.6543998 -2.1121612 -0.51424509
2.3475099 -2.0720603 -0.48988163
1.2045242 -1.5397068 -0.51373267
1.6374017 -1.4441273 -0.49564207
2.8483829 -3.6492233 1.0598423
4.573329 -4.0239496 1.6206813
2.856586 -3.6597614 0.7289626
4.53613 -4.0066633 1.1686088
2.8640547 -3.6693583 0.40418476
4.4040546 -3.9010952 0.7170943
3.1251705 -4.0070672 0.088091016
4.8459806 -4.2994642 0.33769774
4.3845263 -5.6291022 -0.37210864
4.4045353 -3.9124696 -0.10222747
2.6201158 -3.3662436 -0.51872963
4.2767882 -3.799186 -0.49644902
1.6485221 -2.1198616 -0.51472169
2.3384147 -2.0786045 -0.48949096
1.1976627 -1.5419934 -0.5130865
1.6320977 -1.450119 -0.49564207
2.8222058 -3.6418092 1.0547848
nan nan nan
2.8332119 -3.6560438 0.72622806
4.4927573 -3.996398 1.1609833
2.8383915 -3.6640749 0.40244162
4.382998 -3.909843 0.71587729
3.093641 -3.9967453 0.087611079
4.8134265 -4.3022346 0.3365202
4.3486013 -5.6253791 -0.37080026
4.375937 -3.9144998 -0.10187842
2.6077602 -3.3758242 -0.51872963
4.2709298 -3.8207273 -0.49731883
1.6411126 -2.1256032 -0.51472169
2.3348291 -2.0900428 -0.49027231
1.1937457 -1.5480784 -0.51373267
1.63612 -1.4639097 -0.49845183
2.8029013 -3.644402 1.052537
nan nan nan
2.8152788 -3.6605294 0.72505605
4.4195538 -3.9604728 1.1457323
2.821032 -3.6680365 0.401788
4.347157 -3.9052365 0.71222645
3.0720589 -3.9976068 0.087392919
4.7760983 -4.2989836 0.33495009
4.3183022 -5.626657 -0.36988434
4.2972007 -3.8712449 -0.10035133
2.6019976 -3.3927851 -0.51994663
4.2575674 -3.8356125 -0.49731883
1.6351743 -2.1332674 -0.51519823
2.3275194 -2.0981801 -0.49027231
1.1941994 -1.5599122 -0.51631749
1.6255606 -1.4647315 -0.496766
2.7804556 -3.6401215 1.0486033
nan nan nan
2.7911398 -3.6541412 0.7219308
4.3644552 -3.9373302 1.1347706
2.7991476 -3.6659806 0.40048063
4.3224502 -3.9104073 0.71040106
3.0436282 -3.9878964 0.086956613
4.7562623 -4.309773 0.33455759
4.2905421 -5.6290302 -0.36909932
4.3003349 -3.9013236 -0.10074402
2.5937378 -3.4053445 -0.52055508
4.2614398 -3.8647549 -0.49927592
1.6321723 -2.1448245 -0.51662809
2.3256733 -2.111263 -0.49144426
1.1829091 -1.5563744 -0.51373267
1.6261177 -1.4750124 -0.49845183
2.7647898 -3.6459212 1.0474794
4.7317276 -4.2817035 1.6982257
2.7738938 -3.6579576 0.7207588
4.308877 -3.914618 1.123809
2.7824633 -3.6692879 0.39982697
4.2830744 -3.9020956 0.70614165
3.0191269 -3.9845459 0.086651191
4.728272 -4.3145785 0.33364171
4.2618318 -5.6320257 -0.36831427
4.2811499 -3.9112573 -0.10061312
2.5863225 -3.4203174 -0.5214678
4.2509265 -3.8837049 -0.49971083
1.6246755 -2.1505089 -0.51662809
2.3237641 -2.1243587 -0.49261621
1.1847328 -1.5701405 -0.51696372
1.6207006 -1.4809625 -0.49845183
2.741796 -3.6419225 1.0435457
4.7203255 -4.301445 1.6995182
2.7507176 -3.6538041 0.71802425
4.2716298 -3.908118 1.1176132
2.7615123 -3.6695082 0.39873752
4.2474704 -3.89691 0.70249081
2.9939919 -3.9815962 0.086345777
4.6885166 -4.3099322 0.33194077
4.2321687 -5.6356277 -0.36752924
4.2637887 -3.9227955 -0.10052586
2.576746 -3.4337449 -0.52207631
4.2483487 -3.9086285 -0.50101554
1.6171589 -2.1561668 -0.51662809
2.3090582 -2.125778 -0.49105358
1.1792448 -1.5742663 -0.51696372
1.6173172 -1.4882567 -0.49901381
2.7182288 -3.6382825 1.0396121
4.7276721 -4.3399324 1.7079189
2.7328768 -3.6579258 0.71685231
4.2374125 -3.9054689 1.1123707
2.7427275 -3.6711426 0.39786598
4.2156024 -3.8948874 0.69944835
2.9770863 -3.9880159 0.086258516
4.6477776 -4.302546 0.33010903
4.2079959 -5.644361 -0.36713672
4.2464004 -3.9342601 -0.10043859
2.5677075 -3.4466996 -0.52268481
4.2401638 -3.9285078 -0.50166792
1.6140155 -2.167707 -0.51805782
2.3052504 -2.1371775 -0.49183491
1.1694245 -1.5725551 -0.51502508
1.6139024 -1.4955449 -0.49957573
2.6974449 -3.6355348 1.0362405
4.7398767 -4.3801522 1.7176119
2.7104378 -3.6530821 0.71411771
4.2172365 -3.9128277 1.1104643
2.7224817 -3.6706893 0.3967765
4.1892552 -3.8977571 0.69731867
2.9534302 -3.9838064 0.085953094
nan nan nan
4.1818309 -5.6482496 -0.36648253
4.2436152 -3.9592819 -0.10070038
2.557739 -3.457191 -0.52298903
4.2362261 -3.9510334 -0.50275517
1.6064388 -2.1733277 -0.51805782
2.2995832 -2.1468937 -0.49222556
1.1682255 -1.5824606 -0.51696372
1.6142887 -1.5058626 -0.50126159
2.6832941 -3.6429665 1.0356784
4.7263274 -4.398315 1.7182581
2.6932788 -3.6565549 0.71294576
4.1748395 -3.9007401 1.1028389
2.7073426 -3.6756856 0.39634076
4.1593146 -3.8971 0.69458055
2.9380248 -3.9920776 0.085909463
nan nan nan
4.159133 -5.6587882 -0.36622083
4.2158761 -3.9596541 -0.10035133
2.5456553 -3.4660981 -0.52298903
4.2351255 -3.9777217 -0.50427735
1.6017435 -2.1828811 -0.51901102
2.2866709 -2.1498413 -0.49105358
1.1629717 -1.586326 -0.51696372
1.6090224 -1.5114882 -0.50126159
2.660502 -3.6385415 1.0317447
nan nan nan
2.6746716 -3.657958 0.7113831
4.1468878 -3.9018469 1.0990261
2.6871495 -3.6750586 0.39525127
4.1348481 -3.9013858 0.69275504
2.9108078 -3.9841392 0.085516788
nan nan nan
4.1378841 -5.6712546 -0.36609
4.18749 -3.9606164 -0.10000229
2.5379236 -3.4809799 -0.5239017
4.2230258 -3.9941907 -0.50449485
1.5941142 -2.1884589 -0.51901102
2.2899261 -2.1679804 -0.49339753
1.1503311 -1.5806054 -0.51373267
1.6055096 -1.5187658 -0.50182354
2.6463552 -3.6458344 1.0311828
nan nan nan
2.6531892 -3.6552784 0.70903921
4.1225462 -3.9061794 1.0961666
2.6684563 -3.6763513 0.39437976
4.1140037 -3.9089642 0.6915381
2.8924825 -3.9882033 0.085385896
4.11024 -3.9121943 0.2955673
4.1312375 -5.7038655 -0.36726755
4.136724 -3.9414806 -0.099129662
2.5301194 -3.4958501 -0.52481449
4.2191849 -4.0199418 -0.50579959
1.5879021 -2.1959999 -0.51948762
2.2787652 -2.1725578 -0.49261621
1.1515905 -1.5946074 -0.51696372
1.5946312 -1.5196096 -0.50013769
2.6222267 -3.6392336 1.0266873
nan nan nan
2.6259868 -3.6444776 0.7051326
4.0875626 -3.900233 1.0904474
2.6404166 -3.6658926 0.39220086
4.0788026 -3.9027324 0.68788719
2.8690896 -3.9866016 0.085124113
4.0796423 -3.9116952 0.29438975
nan nan nan
4.1229405 -3.9558966 -0.099129662
2.5143962 -3.5010676 -0.52420598
4.2123213 -4.0415363 -0.5066694
1.5816566 -2.2035244 -0.51996422
2.2729514 -2.1822066 -0.49300689
1.1474223 -1.6005815 -0.51760995
1.5946006 -1.5302156 -0.50182354
2.6046228 -3.6428735 1.0250013
nan nan nan
2.609741 -3.6500592 0.70435131
4.046679 -3.8896999 1.0832984
2.6247091 -3.6710339 0.39176506
4.0436954 -3.8963029 0.68423635
2.8478949 -3.9864199 0.084905952
4.0533814 -3.9137828 0.29347387
nan nan nan
4.0965142 -3.9581163 -0.098824248
2.5079184 -3.5179081 -0.52542293
4.2125273 -4.0700483 -0.50840902
1.5782232 -2.2150309 -0.52139401
2.274209 -2.1986961 -0.49496016
1.1418283 -1.6045771 -0.51760995
1.5910048 -1.5374618 -0.5023855
2.5826621 -3.6375823 1.0210676
nan nan nan
2.5861928 -3.642581 0.70122606
nan nan nan
2.6032352 -3.6679838 0.39045775
nan nan nan
2.8274324 -3.9856458 0.084687799
4.0260472 -3.9132941 0.29242715
5.3494816 -7.5520811 -0.4831917
nan nan nan
2.499104 -3.5302567 -0.52603137
4.2061539 -4.0909357 -0.50927883
1.5690658 -2.2185216 -0.52091736
2.268292 -2.2083411 -0.49535078
1.1362202 -1.6085529 -0.51760995
1.5876472 -1.5444242 -0.50294745
2.5643392 -3.638608 1.0188198
nan nan nan
2.5677762 -3.6435106 0.69966346
nan nan nan
2.5867558 -3.6704874 0.38980407
nan nan nan
2.8063107 -3.9852691 0.084469639
4.0159335 -3.9308131 0.29268882
5.3331361 -7.5850062 -0.48410758
nan nan nan
2.4896173 -3.5430207 -0.52663988
4.1911316 -4.1063242 -0.50927883
1.5655383 -2.2300141 -0.52234721
2.265867 -2.2214241 -0.49652278
1.1305985 -1.6125094 -0.51760995
1.5802326 -1.5485315 -0.5023855
2.5390625 -3.6295664 1.0137622
nan nan nan
2.5493839 -3.6443553 0.69810081
nan nan nan
2.5618749 -3.6636109 0.38806093
nan nan nan
2.7831001 -3.9832311 0.084207855
4.0264082 -3.970026 0.29452059
5.292448 -7.586072 -0.48293003
nan nan nan
2.4794514 -3.5561941 -0.52724838
4.173224 -4.1174335 -0.50884396
1.5577447 -2.235465 -0.52234721
2.2633779 -2.2345166 -0.49769473
1.1208301 -1.6104952 -0.51567131
1.5800302 -1.5591606 -0.50407141
2.5215783 -3.6328435 1.0120764
3.7208247 -3.6642339 1.3880476
2.5346024 -3.6516459 0.69771016
3.714232 -3.6717372 1.00752
2.5433943 -3.6643455 0.38718942
3.7013521 -3.6679287 0.63464516
2.7634845 -3.9847033 0.084033333
4.0302558 -4.0016327 0.29582897
5.2687769 -7.6086054 -0.4831917
3.7924094 -3.768472 -0.092715904
2.4684343 -3.5668685 -0.5275526
4.1641302 -4.1372375 -0.50949633
1.5485373 -2.2388697 -0.52187061
2.257318 -2.2441423 -0.49808541
1.1179429 -1.6183746 -0.51696372
1.5728464 -1.5629529 -0.5035094
2.5026095 -3.6311529 1.0092666
3.6983535 -3.6663604 1.3841704
2.5112758 -3.6437604 0.69458491
3.6933303 -3.675386 1.0051371
2.5235269 -3.6629434 0.38609993
3.6762202 -3.6685677 0.63251549
2.7417541 -3.9814899 0.083771542
4.022265 -4.0202656 0.29622149
5.2406888 -7.6219206 -0.48293003
3.8853374 -3.8876815 -0.09533377
2.4551883 -3.5729887 -0.52724838
4.1539125 -4.1545434 -0.50993121
1.5407126 -2.2442615 -0.52187061
2.2512183 -2.2537525 -0.49847603
1.1109233 -1.6202739 -0.51631749
1.5728322 -1.5733175 -0.50519526
2.4871705 -3.6358447 1.0081428
3.682112 -3.6758385 1.3828779
2.495755 -3.6484275 0.69380367
3.6648626 -3.6726348 1.0008477
2.5071509 -3.6651232 0.38544628
3.6546333 -3.672591 0.63099432
2.7207911 -3.980715 0.083553389
3.8426709 -3.8679345 0.28392255
5.2112374 -7.6360431 -0.48266834
3.8935745 -3.9218135 -0.095857337
2.4482899 -3.5897393 -0.52846533
4.1393852 -4.1690178 -0.50993121
1.5383914 -2.2577422 -0.52377695
2.2415962 -2.2598467 -0.49808541
1.1069012 -1.6259466 -0.51696372
1.5656108 -1.5770729 -0.50463331
2.4662588 -3.6324081 1.004771
3.648802 -3.6681406 1.3751234
2.4733012 -3.6428123 0.69106907
3.6468337 -3.6801801 0.9994179
2.4859533 -3.6614861 0.38413891
3.6348081 -3.6782715 0.62977731
2.6970618 -3.9757047 0.083247975
3.7940497 -3.8458087 0.28130576
5.1887498 -7.660388 -0.48306084
3.8781047 -3.9336023 -0.095813707
2.4343545 -3.5962081 -0.52816105
4.1370568 -4.1958466 -0.51145339
1.5305011 -2.2630982 -0.52377695
2.2423708 -2.2764406 -0.50003862
1.0998687 -1.6277982 -0.51631749
1.5618101 -1.5842595 -0.50519526
2.4474883 -3.6333389 1.0025232
3.6217453 -3.6677544 1.3699538
2.4557974 -3.6457071 0.68989712
3.6126497 -3.6725452 0.99369884
2.4697359 -3.6664405 0.38370314
3.6004314 -3.6703312 0.62612647
2.6768923 -3.9772661 0.083073445
nan nan nan
5.130013 -7.6337614 -0.48018241
3.8794096 -3.9638546 -0.096206382
2.4294531 -3.6174705 -0.52998656
4.1216507 -4.2109814 -0.51145339
1.5276599 -2.2768483 -0.52568334
2.2322834 -2.282881 -0.499648
1.0965807 -1.6358331 -0.51760995
1.5508708 -1.5847609 -0.5035094
2.4320848 -3.637809 1.0013993
3.5987661 -3.6700373 1.3660766
2.4361987 -3.64399 0.68794376
3.5843601 -3.6693473 0.98940951
2.4513896 -3.6667554 0.3828316
3.577199 -3.6722209 0.62430102
2.6532795 -3.9720323 0.08276803
nan nan nan
4.944077 -7.4127345 -0.46513578
3.8917034 -4.0042381 -0.096860848
2.4209368 -3.6321244 -0.53089923
4.1173496 -4.2360501 -0.51275814
1.5129087 -2.2719486 -0.52330035
2.2277465 -2.2941973 -0.50042933
1.0908638 -1.6396511 -0.51760995
1.5555376 -1.6006254 -0.50688112
2.4139876 -3.638154 0.99915147
3.5673828 -3.6635609 1.3589683
2.4193711 -3.6462975 0.68677187
3.5612674 -3.6712766 0.98654985
2.4385753 -3.6752899 0.3828316
3.5511844 -3.6698093 0.62186706
2.6366377 -3.9771018 0.082680769
nan nan nan
4.9002628 -7.4028807 -0.46343485
3.886389 -4.0267844 -0.097079009
2.4123483 -3.6467638 -0.53181195
4.1077313 -4.2557683 -0.51341045
1.5080706 -2.2810495 -0.52425355
2.2201264 -2.3015723 -0.50042933
1.0891199 -1.6494987 -0.51954854
1.5482457 -1.6042961 -0.50631922
2.3925354 -3.6318955 0.9952178
3.5468113 -3.6666994 1.3557373
2.3964062 -3.637799 0.68364662
3.5354378 -3.6689405 0.98273712
2.4175184 -3.6712961 0.38152426
3.5314693 -3.6750326 0.62065011
2.612447 -3.9691155 0.082331717
4.0236826 -4.1936259 0.30276349
nan nan nan
3.8861575 -4.0547519 -0.097428054
2.4002419 -3.6547434 -0.53181195
4.1039462 -4.2801447 -0.51471519
1.501444 -2.2883527 -0.52473021
2.2137895 -2.3110886 -0.50081998
1.0820339 -1.6512691 -0.5189023
1.5412277 -1.6076665 -0.50575721
2.3798432 -3.6402249 0.9952178
3.5189192 -3.6633964 1.3499215
2.3782921 -3.6378722 0.68208396
3.5124192 -3.6706297 0.97987759
2.4026067 -3.6751223 0.3810885
3.5014725 -3.6694005 0.61760771
2.5985761 -3.9782104 0.082331717
4.0279794 -4.2275133 0.30420274
nan nan nan
3.8788788 -4.0755291 -0.097602576
2.3955936 -3.6755757 -0.5336374
4.1036978 -4.3113823 -0.51667231
1.4961224 -2.2976947 -0.52568334
2.2159355 -2.3295224 -0.50316393
1.0788926 -1.659088 -0.52019477
1.5386909 -1.6168268 -0.50688112
2.3578472 -3.6342006 0.99128413
3.4977677 -3.6669276 1.3466905
2.3615499 -3.6399357 0.68091202
3.4911244 -3.6739805 0.97749466
2.3769326 -3.6650925 0.37912747
3.4766836 -3.6690028 0.61547804
2.5758274 -3.9751186 0.082069933
4.0399289 -4.2712474 0.30629617
nan nan nan
3.8869691 -4.1126432 -0.098169781
2.3821061 -3.6843314 -0.5336374
4.098896 -4.3365321 -0.51797706
1.4867622 -2.3008409 -0.52520674
2.2077904 -2.3372433 -0.50316393
1.0704795 -1.6587828 -0.5189023
1.5330377 -1.6221881 -0.50688112
2.3405588 -3.6366708 0.98959821
3.4710076 -3.6657059 1.3415209
2.3481932 -3.6485667 0.68091202
3.4675212 -3.6760485 0.974635
2.3614309 -3.6691775 0.3786917
3.4553452 -3.6720881 0.61395687
2.5578825 -3.9777768 0.081939042
4.0215735 -4.2816868 0.30603448
4.978457 -7.75423 -0.48109826
3.8811495 -4.1352921 -0.098387934
2.3719089 -3.6968024 -0.53424591
4.0922627 -4.3598866 -0.51906431
1.480045 -2.3080835 -0.52568334
2.1962345 -2.3413386 -0.50238258
1.0633823 -1.6604743 -0.51825607
1.5240248 -1.6239839 -0.50575721
2.3206222 -3.6320922 0.98622656
3.4488947 -3.6666503 1.3376435
2.326781 -3.6417637 0.67817742
3.4452341 -3.6767914 0.97177547
2.3419108 -3.6669009 0.37760225
3.4289396 -3.6696351 0.61152297
2.5406454 -3.9799151 0.08180815
nan nan nan
4.9674711 -7.7938576 -0.48253751
3.8786309 -4.1616049 -0.098693348
2.3609693 -3.7067411 -0.53455013
4.09478 -4.3916359 -0.52123886
1.4693472 -2.309093 -0.52473021
2.1964765 -2.3580129 -0.50433588
1.0549932 -1.6600971 -0.51696372
1.5252901 -1.6361421 -0.50800502
2.3001089 -3.6278231 0.9828549
3.4212236 -3.6627965 1.3318278
2.3127334 -3.6477776 0.67778683
3.4156446 -3.6708438 0.96700948
2.3270726 -3.6704385 0.37716648
3.4059722 -3.6706772 0.60969746
2.5240638 -3.984535 0.081720889
nan nan nan
4.9148884 -7.7710552 -0.48005152
nan nan nan
2.3586144 -3.7317448 -0.53698409
4.0828128 -4.409555 -0.52167374
1.4652046 -2.320436 -0.52615994
2.1848733 -2.3620448 -0.50355452
1.0533417 -1.6697179 -0.5189023
1.5195695 -1.6414565 -0.50800502
2.2796538 -3.623455 0.97948319
3.3969095 -3.6623325 1.3273042
2.2921023 -3.6432843 0.67544281
3.397809 -3.6773415 0.96557975
2.3089452 -3.670105 0.37629494
3.3864062 -3.6752508 0.60848051
2.5114691 -3.9954381 0.081764519
3.4528141 -3.7537262 0.26547411
4.875792 -7.7691293 -0.47887397
nan nan nan
2.3416212 -3.7336469 -0.5360713
4.0825791 -4.440269 -0.52363086
1.455794 -2.3234556 -0.52568334
2.1833069 -2.3769219 -0.50511718
1.0411099 -1.6631432 -0.51567131
1.5171351 -1.6503308 -0.50912893
2.2682807 -3.6334574 0.98004514
3.3710022 -3.6599689 1.3221346
2.2754507 -3.6449773 0.67427093
3.3666825 -3.6693051 0.96033722
2.294802 -3.676029 0.37607706
3.3601425 -3.6724153 0.60604662
2.4908974 -3.9935734 0.081546366
3.4396901 -3.7657559 0.26547411
4.8710709 -7.822134 -0.48109826
nan nan nan
2.3364353 -3.7544422 -0.53789681
4.0662775 -4.4552026 -0.52363086
1.4541465 -2.3389485 -0.52806634
2.16833 -2.3772404 -0.50355452
1.0362791 -1.6690007 -0.51631749
1.5094306 -1.6540843 -0.50856698
2.2466104 -3.6268525 0.97611141
3.35168 -3.6645916 1.3195499
2.2601149 -3.6486986 0.67348957
3.3472354 -3.6737843 0.95843077
2.2734523 -3.6717072 0.37476969
3.3422916 -3.6786168 0.60513389
2.4736149 -3.9984236 0.081459105
3.4325793 -3.7857296 0.2659975
4.8371224 -7.8314371 -0.48057491
nan nan nan
2.3239613 -3.7650926 -0.53820103
4.0624185 -4.4822779 -0.52515304
1.4421121 -2.3377416 -0.52663654
2.1666598 -2.3921061 -0.50511718
1.0304469 -1.672608 -0.51631749
1.5085659 -1.6647484 -0.51025283
2.2307541 -3.6309106 0.97498757
3.3268509 -3.664346 1.3150265
2.2389767 -3.6443305 0.67114568
3.3172693 -3.6678417 0.9536649
2.2541082 -3.6690078 0.37368023
3.3144553 -3.6736934 0.60239571
2.4557221 -4.0006413 0.081328206
3.4343934 -3.8143737 0.26717505
4.794107 -7.8227277 -0.47900483
nan nan nan
2.3133945 -3.7774148 -0.53880948
4.0484147 -4.498281 -0.52537048
1.4416215 -2.3553257 -0.52949607
2.1649122 -2.4069891 -0.50667977
1.0308899 -1.6865036 -0.51954854
1.4978461 -1.6645818 -0.50856698
2.2174339 -3.6362076 0.97442561
3.3017282 -3.6610227 1.3098569
2.228164 -3.6538444 0.67153633
3.2985208 -3.6715255 0.9517585
2.2361052 -3.6683447 0.37280867
3.293324 -3.6760075 0.60087454
2.4385426 -4.002357 0.081197314
3.433387 -3.838757 0.26809093
4.7551689 -7.8172498 -0.47769642
nan nan nan
2.3034317 -3.7893078 -0.53941798
4.0235076 -4.5005488 -0.52406579
1.4308462 -2.3561463 -0.52854294
2.1532018 -2.4108524 -0.50589848
1.0237461 -1.6880257 -0.5189023
1.4923179 -1.6695397 -0.50856698
2.199687 -3.6355865 0.97217774
3.2760258 -3.6581452 1.3046871
2.2115638 -3.6552598 0.67036432
3.2742367 -3.6702087 0.94842237
2.2213521 -3.6714773 0.37237293
3.2672639 -3.6726615 0.59844059
2.4064655 -3.9808893 0.080586478
nan nan nan
4.7201161 -7.8209753 -0.4769114
3.9302263 -4.4288821 -0.10275104
2.2927518 -3.8015761 -0.54002649
4.0169125 -4.5264344 -0.52537048
1.4276735 -2.3695385 -0.53044933
2.1496968 -2.4238894 -0.50707042
1.020334 -1.6957301 -0.52019477
1.4845681 -1.673179 -0.50800502
2.1819718 -3.6348858 0.96992999
3.2568107 -3.6623459 1.3021023
2.187362 -3.643898 0.66684842
3.2548888 -3.6742733 0.94651592
2.2014785 -3.6689138 0.37128344
3.2478459 -3.6766112 0.59722364
2.4111247 -4.0218487 0.081240945
nan nan nan
4.6760378 -7.8125129 -0.47534129
3.9081266 -4.4350777 -0.10257652
2.2762573 -3.8056939 -0.53941798
4.0027361 -4.5422959 -0.52558798
1.416878 -2.3702929 -0.52949607
2.1412227 -2.4313784 -0.50707042
1.0168803 -1.703431 -0.52148712
1.4819471 -1.682 -0.50912893
2.1648993 -3.6365776 0.96824408
3.228966 -3.6579766 1.2962865
2.1714671 -3.6476455 0.66606712
3.2300436 -3.6732883 0.94317979
2.188658 -3.6765759 0.37128344
3.2218874 -3.6730144 0.59478968
2.4226096 -4.0732179 0.082113571
nan nan nan
4.6423678 -7.8180532 -0.4746871
nan nan nan
2.2705514 -3.8264232 -0.54124343
3.9852145 -4.5543671 -0.52537048
1.4123466 -2.3815594 -0.53092587
2.1408629 -2.4481204 -0.50902373
1.0084707 -1.702812 -0.52019477
1.4776745 -1.6889927 -0.50969088
2.1466372 -3.6332474 0.96543437
3.2120364 -3.6632211 1.2943479
2.1505737 -3.6399407 0.66333252
3.209764 -3.6747453 0.94079685
2.1682181 -3.6713235 0.36997613
3.1976259 -3.6711514 0.59266001
2.4090891 -4.0812292 0.082113571
nan nan nan
4.6088133 -7.8204975 -0.47390205
nan nan nan
2.2578502 -3.8339314 -0.54124343
3.971725 -4.5694361 -0.52558798
1.4015386 -2.3822427 -0.52997267
2.1290612 -2.4518542 -0.50824243
0.99885654 -1.7000715 -0.51825607
1.4736671 -1.6957191 -0.51025283
2.1327109 -3.6386161 0.96487242
3.1849408 -3.6580317 1.288532
2.1366072 -3.6452947 0.66294187
3.1872592 -3.6748126 0.93793732
2.1509981 -3.6698971 0.36910459
3.1750417 -3.6710391 0.59083462
2.4112372 -4.117661 0.082680769
3.9538538 -4.5778403 0.3151933
4.5739298 -7.8236055 -0.47311702
nan nan nan
2.2532089 -3.8567913 -0.54337311
3.9557505 -4.583272 -0.52558798
1.3919791 -2.3850002 -0.52949607
2.1237199 -2.4630067 -0.50902373
0.99807113 -1.7117243 -0.52084094
1.4645483 -1.6971709 -0.50912893
2.1175492 -3.6418254 0.96374846
3.1658282 -3.6618257 1.2859472
2.1176684 -3.6420548 0.66098863
3.1631889 -3.672909 0.93460107
2.1381745 -3.6773832 0.36910459
3.1524975 -3.6708138 0.58900911
2.4093966 -4.1476717 0.083117083
3.9671299 -4.6257029 0.31754839
4.5490971 -7.8438435 -0.47337872
4.0794115 -4.7597752 -0.10881574
2.2459493 -3.8753703 -0.54489434
3.9429715 -4.6008315 -0.52602285
1.3848734 -2.3919692 -0.52997267
2.1199353 -2.4760251 -0.51019567
0.99088299 -1.7131062 -0.52019477
1.463382 -1.7078125 -0.51081479
2.0963109 -3.6344199 0.95981485
3.1372783 -3.6545451 1.2794851
2.1012437 -3.6430058 0.65981662
3.1407683 -3.6727464 0.93174154
2.1191082 -3.6740341 0.36801511
3.1299937 -3.670476 0.58718371
2.4036338 -4.1712203 0.083422497
3.9720204 -4.664217 0.31924933
4.5092435 -7.8380322 -0.47207028
4.0668015 -4.7804031 -0.10894664
2.232408 -3.8831863 -0.54489434
3.9163916 -4.6038775 -0.52471811
1.3765156 -2.3967888 -0.52997267
2.1048713 -2.4758937 -0.50863308
0.98579687 -1.7188224 -0.52084094
1.4618589 -1.7187216 -0.51250064
2.0787766 -3.6332552 0.95756698
3.119797 -3.6599646 1.2775466
2.0836139 -3.6417434 0.65825403
3.110436 -3.663126 0.92649895
2.1006861 -3.6731269 0.36714357
3.1075304 -3.6700258 0.58535826
2.4019611 -4.2038817 0.083902441
nan nan nan
4.4767752 -7.8479996 -0.47167778
4.0355601 -4.7773948 -0.10855396
2.2193885 -3.8934989 -0.54519856
3.9002969 -4.6175208 -0.52471811
1.3705676 -2.4058454 -0.53092587
2.099407 -2.4869955 -0.50941437
0.97859901 -1.7201529 -0.52019477
1.4526992 -1.720098 -0.51137674
2.0582399 -3.6281338 0.95419526
3.0923064 -3.6547954 1.2717308
2.0665996 -3.6429105 0.65708208
3.0938225 -3.6707518 0.92554587
2.0792563 -3.6652699 0.36561832
3.0844679 -3.6700027 0.58353287
2.3995886 -4.2339916 0.084338747
nan nan nan
nan nan nan
3.9674125 -4.7302055 -0.10715777
2.2057838 -3.9012225 -0.54519856
3.8905625 -4.6387358 -0.52558798
1.3617404 -2.4108527 -0.53092587
2.0934546 -2.4984543 -0.51019567
0.97732782 -1.731976 -0.52277958
1.4466859 -1.7251585 -0.51137674
2.0419817 -3.6289253 0.9525094
3.0748639 -3.6600239 1.2697921
2.0526609 -3.6479495 0.65669137
3.065222 -3.6627238 0.92077988
2.0652297 -3.6703348 0.36540046
3.0668633 -3.675036 0.58262008
2.4007068 -4.2706742 0.084905952
3.7061718 -4.4474878 0.30158594
nan nan nan
3.9893017 -4.7900953 -0.10820492
2.1970041 -3.9175572 -0.54641551
3.8711565 -4.6484628 -0.52515304
1.3545146 -2.4177332 -0.53140247
2.0910482 -2.5133305 -0.51175833
0.97009856 -1.7332683 -0.52213335
1.4406552 -1.7301977 -0.51137674
2.0251904 -3.6271672 0.95026165
3.050317 -3.6553788 1.2646224
2.0357416 -3.6461103 0.65512884
3.0467763 -3.6653249 0.91887349
2.0433421 -3.6597624 0.36365736
3.0435619 -3.6718235 0.58049041
2.3974829 -4.2982626 0.085298628
3.6834362 -4.4501438 0.30093175
nan nan nan
3.9550192 -4.7828145 -0.10772497
2.1864123 -3.9291589 -0.54702401
3.8533182 -4.6600289 -0.5249356
1.3452988 -2.4200659 -0.53092587
2.0795512 -2.5164487 -0.51097703
0.96521264 -1.7387568 -0.52277958
1.4377193 -1.7389649 -0.51250064
2.0125167 -3.6342144 0.95026165
3.0251977 -3.6511393 1.2594528
2.0206113 -3.6488726 0.65434748
3.0230157 -3.662699 0.91553736
2.026299 -3.6606886 0.36300367
3.0275691 -3.6785963 0.57988191
2.3913829 -4.3245244 0.08564768
3.6655142 -4.4616866 0.30080089
nan nan nan
3.9128985 -4.7656989 -0.10702688
2.1803806 -3.9523587 -0.54915369
3.8338645 -4.6696033 -0.52450067
1.3403934 -2.4311972 -0.53235567
2.0723233 -2.525599 -0.51136768
0.95913738 -1.7421155 -0.52277958
1.4269919 -1.7383337 -0.51081479
1.9944978 -3.6330223 0.94801378
3.0071878 -3.6566114 1.2575142
2.0001001 -3.6432633 0.65200359
3.0048997 -3.6680639 0.91410762
2.0075209 -3.6568208 0.36191419
3.0021338 -3.6737823 0.57744801
2.3966923 -4.3701115 0.086389408
3.6420195 -4.4647875 0.3001467
nan nan nan
3.8630414 -4.738668 -0.10611062
2.1689513 -3.9643006 -0.54976213
3.8159659 -4.6810284 -0.52428317
1.3307228 -2.433707 -0.53187907
2.0666194 -2.5366416 -0.51214898
0.95305037 -1.7454529 -0.52277958
1.4240011 -1.7470742 -0.51193869
1.9789467 -3.6331971 0.94632798
2.984338 -3.6534812 1.2529907
1.9856472 -3.6455381 0.65122223
2.9880672 -3.672302 0.91267776
1.9935542 -3.6616187 0.36169636
2.9830298 -3.6765373 0.576231
2.4024832 -4.415369 0.087131135
3.6209016 -4.4690866 0.29962334
nan nan nan
nan nan nan
2.158159 -3.9758341 -0.55037063
3.7972851 -4.6897883 -0.5238483
1.3222195 -2.4383373 -0.53187907
2.0655305 -2.5534282 -0.51410228
0.94809961 -1.7508936 -0.52342576
1.4197364 -1.7536771 -0.51250064
1.9616252 -3.6315074 0.94408011
2.9593818 -3.6488826 1.2478211
1.9682193 -3.643754 0.64965957
2.959789 -3.6636348 0.90791184
1.9778529 -3.661634 0.36104268
2.9561517 -3.6695502 0.57349294
nan nan nan
3.5911815 -4.4642019 0.29844579
nan nan nan
nan nan nan
2.151319 -3.9964557 -0.55219609
3.7707007 -4.6920338 -0.52254355
1.3171825 -2.4494245 -0.53330886
2.0535071 -2.5567765 -0.51332092
0.94312257 -1.7563212 -0.52407193
1.4102398 -1.7550771 -0.51137674
1.9420414 -3.6254454 0.94070846
2.9390442 -3.6497934 1.2445902
1.9519937 -3.6440711 0.64848769
2.9439075 -3.6701183 0.90695864
1.9585464 -3.6578784 0.35995322
2.9371169 -3.6721013 0.57227594
nan nan nan
3.5654397 -4.4656358 0.29766074
4.2394443 -7.9391046 -0.46984604
nan nan nan
2.1401589 -4.0108833 -0.55310881
3.7542999 -4.7051673 -0.52254355
1.3086244 -2.4540074 -0.53330886
2.0553651 -2.5774283 -0.51605552
0.93585306 -1.7574699 -0.52342576
1.4117204 -1.7694951 -0.5141865
1.9275991 -3.6303868 0.94014645
2.9180989 -3.6511157 1.2413591
1.9363103 -3.6468377 0.64770633
2.916662 -3.6636169 0.90266925
1.9457661 -3.6646926 0.35995322
2.9128256 -3.6692481 0.57014626
nan nan nan
3.5374105 -4.4624128 0.29661402
4.2082019 -7.9472356 -0.46945354
3.1626101 -3.9932289 -0.088309169
2.1284642 -4.0227165 -0.55371726
3.7270164 -4.7045865 -0.52102137
1.3007666 -2.460958 -0.53378546
2.0443695 -2.5830102 -0.51566488
0.92971265 -1.760726 -0.52342576
1.4040186 -1.7725055 -0.51362455
1.9137809 -3.634937 0.93958449
2.9008272 -3.6556089 1.2394205
1.9143739 -3.6360908 0.64458108
2.8977611 -3.6660805 0.90076292
1.9271656 -3.6604404 0.35886377
2.8923101 -3.669657 0.56862509
nan nan nan
3.5218124 -4.4747338 0.29661402
4.1734743 -7.9486117 -0.46866846
3.147105 -4.0022807 -0.088265538
2.115561 -4.0323195 -0.55402148
3.713654 -4.7214804 -0.5214563
1.2898928 -2.4611342 -0.53283226
2.0368688 -2.5920701 -0.51605552
0.92356098 -1.7639604 -0.52342576
1.3978229 -1.7773957 -0.51362455
1.8965757 -3.6329556 0.93733674
2.877574 -3.6524434 1.234897
1.9016699 -3.642751 0.64458108
2.8728106 -3.6607401 0.89695019
1.9132251 -3.6649368 0.35864586
2.8663416 -3.6616557 0.56588691
nan nan nan
3.4923224 -4.469306 0.29543647
4.1376362 -7.9476285 -0.46775261
3.113096 -3.9876461 -0.08769834
2.1026173 -4.0418816 -0.55432576
3.6894789 -4.7246065 -0.52036905
1.2828547 -2.4675765 -0.53330886
2.0267403 -2.5968659 -0.51566488
0.92072999 -1.7736073 -0.5253644
1.3931133 -1.7841812 -0.5141865
1.8800414 -3.6305702 0.93508887
2.8535244 -3.6467619 1.2297274
1.8850416 -3.6402638 0.64301842
2.8515921 -3.6586416 0.89409065
1.8969892 -3.6649566 0.35799223
2.8535428 -3.6716387 0.56588691
nan nan nan
3.4713533 -4.4729776 0.29491308
nan nan nan
3.1037567 -4.0044107 -0.087829225
2.0914762 -4.0532432 -0.55493426
3.6737912 -4.736815 -0.52036905
1.2776022 -2.478586 -0.5347386
2.0237238 -2.6117239 -0.51722747
0.91122377 -1.7703651 -0.52342576
1.3901826 -1.7926351 -0.51531041
1.8651335 -3.6327748 0.93396497
2.8378105 -3.652889 1.228435
1.8689432 -3.6402304 0.64184654
2.8267729 -3.6530581 0.89027792
1.8848253 -3.6712267 0.35799223
2.8300843 -3.667835 0.56375718
2.0738974 -4.0434017 0.078710347
3.4450409 -4.4712334 0.29399723
nan nan nan
3.0714459 -3.9914653 -0.087305658
2.0829611 -4.0715671 -0.55645543
3.6518433 -4.7443309 -0.51971668
1.2678274 -2.4808445 -0.53426206
2.0130866 -2.616817 -0.51683682
0.90613413 -1.7756873 -0.52407193
1.3880719 -1.8035007 -0.51699626
1.8469212 -3.6284063 0.93115526
2.8147044 -3.6493969 1.2239115
1.8517483 -3.6379273 0.64028388
2.8125069 -3.6609583 0.88980132
1.8657153 -3.6670091 0.35690275
2.8081985 -3.6658816 0.56193173
2.0579314 -4.0487461 0.078666717
3.4210401 -4.4739199 0.29334304
nan nan nan
3.0498979 -3.9922373 -0.087087497
2.0725086 -4.0880289 -0.55767238
3.6398017 -4.7629824 -0.52036905
1.2602675 -2.4874446 -0.5347386
2.0054414 -2.6257885 -0.51722747
0.9010185 -1.7809956 -0.52471817
1.3743533 -1.7986717 -0.5141865
1.8314179 -3.6307998 0.9300313
2.7880814 -3.6424427 1.2180958
1.8350691 -3.6380737 0.63911188
2.785661 -3.6536911 0.88551193
1.849542 -3.6668272 0.35624912
2.7917359 -3.6722016 0.56132329
2.0426624 -4.0536728 0.078623094
3.3933127 -4.4699359 0.29229632
nan nan nan
3.0208209 -3.9829569 -0.086651191
2.0571129 -4.0930209 -0.55736816
3.618633 -4.7697096 -0.51971668
1.2555406 -2.5008233 -0.536645
1.9958038 -2.633121 -0.51722747
0.89263493 -1.7798102 -0.52342576
1.3739711 -1.8112092 -0.51643431
1.8122022 -3.6240947 0.92665964
2.7694972 -3.6444674 1.215511
1.819049 -3.6378305 0.63793993
2.7714074 -3.661437 0.88503534
1.8322799 -3.6643486 0.35537753
2.7714167 -3.6720288 0.55980206
2.0240357 -4.0518317 0.078448564
3.3731766 -4.4757757 0.29190379
nan nan nan
3.0008779 -3.9854953 -0.086476669
2.048341 -4.1112843 -0.55888933
3.6049614 -4.7862887 -0.52015162
1.2489874 -2.5095863 -0.53759819
1.9880877 -2.6420426 -0.51761818
0.88534385 -1.7807518 -0.52277958
1.3705795 -1.8198804 -0.51755822
1.797379 -3.6260324 0.92553568
2.7523892 -3.6483328 1.2135723
1.8052437 -3.6419449 0.63754928
2.7512283 -3.6612866 0.8826524
1.8183724 -3.6684899 0.35515964
2.7517729 -3.6712782 0.55828089
2.017638 -4.0745559 0.078753978
3.3530405 -4.4815297 0.29151127
3.7148533 -7.5154815 -0.43752858
2.976459 -3.981941 -0.086171255
2.0328798 -4.1161838 -0.55858511
3.5882323 -4.7988434 -0.52015162
1.238489 -2.5093114 -0.536645
1.9882008 -2.6604764 -0.51996207
0.88444984 -1.7946676 -0.52601057
1.3612932 -1.8207572 -0.51643431
1.7831974 -3.6275992 0.92441177
2.7330258 -3.6477838 1.2103413
1.7877153 -3.6368289 0.63559604
2.7346623 -3.6644933 0.88122261
1.8000699 -3.6636364 0.35407022
2.7315247 -3.6709149 0.55675966
2.0085185 -4.0902009 0.078928508
3.3321986 -4.4846134 0.29098791
3.7283528 -7.6062293 -0.44210801
2.96105 -3.9903009 -0.086127624
2.0246713 -4.1340475 -0.56010634
3.5678396 -4.8047204 -0.51949918
1.2329535 -2.5202351 -0.53807479
1.9803759 -2.6693816 -0.52035272
0.87500614 -1.791231 -0.52407193
1.3581603 -1.8291674 -0.51755822
1.7651941 -3.6228495 0.92160207
2.7101727 -3.6437473 1.2058178
1.7728485 -3.6386063 0.63481474
2.7145402 -3.6641645 0.87883967
1.7846416 -3.6628671 0.35341653
2.709836 -3.6684606 0.55493426
1.9887636 -4.085947 0.078710347
3.3031719 -4.4781466 0.28981036
nan nan nan
2.9359236 -3.9840107 -0.085778572
2.0080631 -4.1366239 -0.55949783
3.5480878 -4.813138 -0.51906431
1.2209407 -2.5178964 -0.536645
1.9681118 -2.6723056 -0.51957142
0.87116289 -1.7984719 -0.5253644
1.3546656 -1.8378128 -0.51868212
1.7504206 -3.6246009 0.92047811
2.6931274 -3.6473613 1.2038792
1.7612092 -3.6469965 0.63520539
2.6886292 -3.6558375 0.87455028
1.7696809 -3.664588 0.35298073
2.6867287 -3.6639004 0.55280459
1.9788295 -4.101871 0.078884877
3.2830896 -4.4836097 0.28941783
nan nan nan
2.9249544 -3.9982672 -0.08586584
2.0000608 -4.1570272 -0.56132329
3.5297928 -4.8234854 -0.51884681
1.2174519 -2.5332062 -0.53902799
1.9660723 -2.689116 -0.52152467
0.86383665 -1.7993238 -0.52471817
1.3482422 -1.8425303 -0.51868212
1.736707 -3.6284912 0.91991615
2.6732309 -3.6470084 1.2006482
1.743143 -3.6419826 0.63325208
2.6686058 -3.6552968 0.87216729
1.7525818 -3.6617556 0.35210919
2.6680732 -3.6652377 0.55158758
1.9752722 -4.131309 0.079321183
3.2512538 -4.4728422 0.28797859
nan nan nan
2.8999882 -3.9948101 -0.085560411
1.9855379 -4.1639833 -0.56132329
3.5179501 -4.8444467 -0.51971668
1.2086021 -2.5374405 -0.53902799
1.9566735 -2.6959624 -0.52152467
0.85827106 -1.8046597 -0.5253644
1.3386095 -1.8435231 -0.51755822
1.7229875 -3.6323299 0.9193542
2.6547925 -3.6485119 1.1980634
1.7251335 -3.636888 0.63129884
2.6500618 -3.6566472 0.87026095
1.7370173 -3.6636527 0.35167342
2.6494415 -3.6664896 0.55037063
1.9676002 -4.1543379 0.079626605
3.2348385 -4.4847283 0.28797859
nan nan nan
2.884563 -4.002882 -0.085516788
1.9766161 -4.1846976 -0.56314874
3.4981027 -4.8526583 -0.51928174
1.2028759 -2.5483046 -0.54045779
1.947251 -2.7027762 -0.52152467
0.85402137 -1.8120157 -0.52665675
1.3321663 -1.8481846 -0.51755822
1.7034535 -3.6253891 0.91598248
2.6371551 -3.6523483 1.1961248
1.7117922 -3.6431863 0.63129884
2.6265976 -3.6523988 0.86692482
1.7231603 -3.6674392 0.35145551
2.6279364 -3.663626 0.54854518
1.9605145 -4.1770229 0.079932019
3.2046134 -4.4757061 0.28667018
nan nan nan
2.8603795 -3.9987051 -0.085211366
1.9640988 -4.1960673 -0.56375718
3.4840438 -4.8688884 -0.51971668
1.190858 -2.5458164 -0.53902799
1.9392439 -2.7115633 -0.52191538
0.84565139 -1.8106077 -0.5253644
1.3257067 -1.8528234 -0.51755822
1.6924496 -3.6332266 0.91654444
2.6179824 -3.6512673 1.1928937
1.6955349 -3.6398871 0.62973619
2.6073298 -3.6511099 0.86454177
1.7061472 -3.6643987 0.35058397
2.6108084 -3.6667173 0.54763246
1.959296 -4.2107024 0.080455594
3.1781666 -4.4700398 0.28562346
nan nan nan
2.839159 -3.9984818 -0.084993213
1.956435 -4.2160654 -0.56558263
3.4664347 -4.878386 -0.51949918
1.1881478 -2.5633216 -0.54188758
1.9326314 -2.7223394 -0.52269667
0.84033817 -1.8157408 -0.52601057
1.3195553 -1.8572093 -0.51755822
1.6756777 -3.6302633 0.91429669
2.5940015 -3.6446543 1.1877241
1.6817852 -3.6435411 0.62934548
2.5888841 -3.6521864 0.86263543
1.6939863 -3.6700363 0.35058397
2.5879533 -3.661634 0.54550278
1.9289004 -4.1834598 0.07980112
3.153897 -4.4688759 0.28483844
nan nan nan
2.8143454 -3.9915423 -0.084644169
1.9458491 -4.2318888 -0.56679958
3.4508221 -4.8924904 -0.51971668
1.1771473 -2.5629916 -0.54093432
1.9245421 -2.7310853 -0.52308732
0.83431238 -1.8185176 -0.52601057
1.3172883 -1.8677677 -0.51924407
1.659959 -3.6294432 0.91261083
2.574286 -3.643832 1.1844931
1.6659789 -3.6426518 0.62817359
2.5676341 -3.6491668 0.85977584
1.6759912 -3.6646004 0.34949452
2.5708745 -3.6645555 0.54459006
1.9049455 -4.1697011 0.079408444
3.1325414 -4.471683 0.28431508
nan nan nan
2.7946546 -3.9931552 -0.084469639
1.9392879 -4.2567239 -0.56923354
3.4322932 -4.9024668 -0.51949918
1.1692086 -2.5693192 -0.54141092
1.917833 -2.7418296 -0.52386862
0.82895678 -1.8236184 -0.52665675
1.3079585 -1.868369 -0.51812023
1.6466451 -3.6355026 0.91261083
2.5539715 -3.643362 1.181262
1.6515988 -3.6464832 0.62778294
2.5486143 -3.6505103 0.85786951
1.6604956 -3.6661806 0.34905878
2.5538065 -3.6674025 0.54367733
1.9009738 -4.2017112 0.079888389
3.1132779 -4.4790368 0.28405339
3.1144822 -6.8964405 -0.39474395
2.7714343 -3.9910605 -0.084207855
1.9257123 -4.2683277 -0.56984198
3.4071896 -4.9047928 -0.51841193
1.1592257 -2.571147 -0.54093432
1.9124838 -2.7545867 -0.52504057
0.82424569 -1.8310509 -0.52794921
1.305283 -1.879144 -0.51980603
1.6315904 -3.6342745 0.91092491
2.5349672 -3.6419079 1.1780311
1.6384875 -3.6496868 0.62739223
2.5294931 -3.648864 0.85548645
1.6466697 -3.6696818 0.34884086
2.5339248 -3.6660955 0.54215616
1.8900956 -4.2148356 0.08001928
3.0941484 -4.4831758 0.28366089
3.0946536 -6.9135671 -0.39513645
2.7518041 -3.9924836 -0.084033333
1.9155958 -4.2837524 -0.57105899
3.3923218 -4.9181132 -0.51862943
1.1492443 -2.5729365 -0.54045779
1.9028567 -2.7612457 -0.52504057
0.8217752 -1.8427432 -0.53053403
1.3018186 -1.8874673 -0.52092993
1.614939 -3.6310427 0.90867716
2.5194895 -3.6467631 1.1767386
1.6227306 -3.6486142 0.62622029
2.5125613 -3.6516106 0.85405672
1.6324697 -3.6705699 0.34840509
2.5140834 -3.6646945 0.54063499
nan nan nan
3.0657666 -4.4754229 0.28248331
3.0583646 -6.8969378 -0.39356637
2.7314811 -3.9912791 -0.083815172
1.9026392 -4.2949514 -0.57166743
3.3751335 -4.929925 -0.51862943
1.1432307 -2.5836673 -0.54188758
1.8987938 -2.7760158 -0.52660322
0.81371152 -1.8410383 -0.52924156
1.292462 -1.8879851 -0.51980603
1.6012733 -3.634428 0.90811521
2.502641 -3.6495652 1.1748
1.6040175 -3.6406951 0.62387633
2.4942546 -3.6522574 0.85215032
1.6156348 -3.6671276 0.34753352
2.4956808 -3.6652493 0.53941798
nan nan nan
3.0374768 -4.4675264 0.28130576
3.0272465 -6.8915691 -0.39265051
2.7105 -3.9904578 -0.083597019
1.8896278 -4.3061118 -0.57227594
3.3551018 -4.9375587 -0.5181945
1.134205 -2.5876422 -0.54188758
1.8918718 -2.7867093 -0.52738452
0.8092131 -1.8482941 -0.53053403
1.2872368 -1.8944975 -0.52036798
1.5856571 -3.633296 0.90642929
2.4817204 -3.6463082 1.1709228
1.5912994 -3.6462719 0.62387633
2.470458 -3.6447022 0.84833759
1.6018293 -3.6704617 0.34731564
2.4703476 -3.6554475 0.5366798
nan nan nan
3.0232618 -4.4801698 0.28143659
2.9981947 -6.8906465 -0.39199629
2.6874635 -3.987936 -0.083335236
1.8815031 -4.3286147 -0.57440561
3.3369823 -4.9498224 -0.5181945
1.1300448 -2.6028445 -0.54427052
1.8862805 -2.7994337 -0.52855647
0.80147505 -1.8490307 -0.5298878
1.288479 -1.9113057 -0.5237397
1.5729648 -3.6388087 0.90642929
2.462208 -3.6449499 1.1676918
1.5717109 -3.6359351 0.62114179
2.4494889 -3.6410947 0.845478
1.586392 -3.6717348 0.34687987
2.4478819 -3.6496332 0.53455013
1.9253162 -4.4614944 0.084207855
2.9845703 -4.4580464 0.27934316
2.9600866 -6.871778 -0.39029539
2.6651766 -3.9848342 -0.083073445
1.8666052 -4.3377609 -0.57470983
3.3169103 -4.9573021 -0.51775956
1.1180483 -2.6000075 -0.54284072
1.8833745 -2.8162549 -0.53050977
0.79596639 -1.8540373 -0.53053403
1.2804406 -1.9137696 -0.52317774
1.5548308 -3.6333494 0.90361959
2.4461386 -3.64994 1.1663994
1.558374 -3.6416714 0.62114179
2.4293046 -3.6398487 0.84309506
1.5676935 -3.6635094 0.34557253
2.4323733 -3.654027 0.53394163
1.9067866 -4.4612913 0.084076963
2.959307 -4.4538894 0.27842727
2.9292278 -6.8659935 -0.3893795
2.6470976 -3.9878693 -0.08294256
1.8524243 -4.3465338 -0.57501411
3.3009651 -4.9709239 -0.51797706
1.1118461 -2.6106701 -0.54427052
1.8721642 -2.8207564 -0.53011912
0.78666121 -1.8501343 -0.52859539
1.2778075 -1.9243076 -0.5248636
1.5427737 -3.6384854 0.90361959
2.4259815 -3.6459768 1.1625222
1.5424379 -3.6377239 0.61957914
2.4145052 -3.643796 0.84214187
1.5548959 -3.6689591 0.34557253
2.4113839 -3.6500816 0.53211623
1.8949034 -4.4744959 0.084207855
2.9458976 -4.4657612 0.27855811
2.9015856 -6.8641701 -0.38872528
2.6304071 -3.992913 -0.082855292
1.8399292 -4.3572254 -0.57562262
3.2858355 -4.983922 -0.5181945
1.0989176 -2.6054878 -0.54236418
1.8623066 -2.8272743 -0.53011912
0.78113329 -1.8550956 -0.52924156
1.2700744 -1.9265033 -0.52430165
1.5272374 -3.6371088 0.90193367
2.4079082 -3.6463673 1.1599373
1.5287756 -3.6408086 0.61918849
2.3977199 -3.6460545 0.84071207
1.5379052 -3.6626115 0.34448308
2.3959026 -3.6543293 0.53150773
nan nan nan
2.9343991 -4.4822803 0.27895063
2.8959131 -6.9180174 -0.39121127
2.6075606 -3.9869795 -0.082549877
1.8275775 -4.3704901 -0.57653528
3.2684186 -4.9953613 -0.5181945
1.0907602 -2.6115727 -0.54284072
1.85378 -2.8358226 -0.53050977
0.77683264 -1.8621353 -0.53053403
1.262004 -1.9288892 -0.5237397
1.5098614 -3.6311691 0.89912397
2.3925135 -3.6507134 1.1586449
1.5141636 -3.641562 0.61840719
2.3796043 -3.6461871 0.83880574
1.5193805 -3.6541574 0.34317574
2.3831317 -3.6626704 0.53150773
nan nan nan
2.9119253 -4.4820342 0.27829644
2.8898995 -6.9719076 -0.39369723
2.5854502 -3.9834845 -0.082288086
1.8075687 -4.3653779 -0.57501411
3.2455299 -4.9983883 -0.51732463
1.0825739 -2.6176331 -0.54331732
1.8465631 -2.846416 -0.53129107
0.76756811 -1.8581365 -0.52859539
