# .PCD v0.7 - Point Cloud Data file format
VERSION 0.7
FIELDS x y z
SIZE 4 4 4
TYPE F F F
COUNT 1 1 1
WIDTH 1634
HEIGHT 1
VIEWPOINT 0 0 0 1 0 0 0
POINTS 1634
DATA ascii
2.4499528 -0.96696842 -0.50471324
3.1386416 -0.61247331 -0.50042933
1.8315331 -0.7238273 -0.51760995
2.2051795 -0.42934966 -0.51025283
nan nan nan
nan nan nan
4.2819734 -1.6959057 0.72310281
nan nan nan
3.6956775 -1.4634327 0.34470096
nan nan nan
3.6319244 -1.4396261 0.06758444
5.6037788 -1.1060777 0.29752991
3.6801476 -1.4609916 -0.2056803
5.7548876 -1.1378596 -0.10179116
3.7425504 -1.4880624 -0.48952261
5.3797441 -1.0639997 -0.4757908
2.4447937 -0.97332394 -0.50423664
3.134388 -0.62130642 -0.50003862
1.8248924 -0.72746539 -0.51631749
2.2110682 -0.43729386 -0.51193869
nan nan nan
nan nan nan
4.2462287 -1.6989053 0.71802425
nan nan nan
3.6905468 -1.4763241 0.34470096
nan nan nan
3.6268771 -1.4522951 0.06758444
5.455451 -1.0967189 0.28981036
3.6819761 -1.4766201 -0.20607282
5.6111841 -1.1299254 -0.099304192
3.7373333 -1.5011172 -0.48952261
5.3686719 -1.081303 -0.47513849
2.4459336 -0.98368663 -0.50518978
3.1346211 -0.63272882 -0.50042933
1.82906 -0.73654389 -0.51825607
2.2143064 -0.44596142 -0.5130626
nan nan nan
nan nan nan
4.2150936 -1.7035289 0.71372712
nan nan nan
3.6830621 -1.4882632 0.34448308
nan nan nan
3.6264188 -1.4668231 0.067671701
5.3390603 -1.09282 0.28379169
3.6767991 -1.4894637 -0.20607282
5.4847512 -1.1245025 -0.097122639
3.7251735 -1.5113516 -0.48860985
5.3648648 -1.1000365 -0.47513849
2.4333928 -0.98851734 -0.50328338
3.1251349 -0.64218611 -0.49925736
1.8264778 -0.74292403 -0.51825607
2.2055738 -0.4522348 -0.51137674
nan nan nan
22.46961 -4.5680656 6.12602
4.2022643 -1.7154293 0.71255511
35.294155 -7.2431164 6.9902062
3.6778448 -1.5011106 0.34448308
nan nan nan
3.6212769 -1.4794728 0.067671701
5.2129865 -1.0860938 0.27724969
3.6692674 -1.5013424 -0.20594198
5.355978 -1.1177024 -0.094897456
3.729058 -1.5281138 -0.48982683
5.3683071 -1.1202768 -0.4757908
2.4412766 -1.0016717 -0.50566638
3.1277099 -0.65409499 -0.50003862
1.8305724 -0.75205487 -0.52019477
2.2135246 -0.46190193 -0.51362455
nan nan nan
22.472448 -4.6503825 6.1311893
4.2282047 -1.7432778 0.71802425
35.492077 -7.4129057 7.0345292
3.6771867 -1.5158401 0.34491885
nan nan nan
3.6207108 -1.4940134 0.067758963
5.1090117 -1.083142 0.27188528
3.666311 -1.5150959 -0.20607282
5.2199855 -1.1084659 -0.092541374
3.7145317 -1.5373213 -0.48860985
5.3594904 -1.1379783 -0.47535589
2.4354985 -1.009246 -0.50518978
3.1302395 -0.66602969 -0.50081998
1.8234764 -0.7565847 -0.5189023
2.204747 -0.46812257 -0.51193869
nan nan nan
nan nan nan
4.2289314 -1.7608768 0.71919626
35.453983 -7.5342021 7.0321469
3.6902628 -1.5363328 0.34666198
nan nan nan
3.6108599 -1.5047178 0.067671701
5.0197673 -1.0826229 0.26730588
3.6656072 -1.5298098 -0.2063345
nan nan nan
3.7160103 -1.5531522 -0.48952261
5.3579206 -1.1572033 -0.47557336
2.4274347 -1.0158433 -0.50423664
3.1206529 -0.67539555 -0.499648
1.814145 -0.76013881 -0.51696372
2.1959531 -0.47428754 -0.51025283
nan nan nan
nan nan nan
4.2227592 -1.7756279 0.71919626
35.357899 -7.6428857 7.0183253
3.6894684 -1.5511374 0.34709772
nan nan nan
3.6078892 -1.5182836 0.067715332
4.9257116 -1.0804287 0.26246482
3.6579444 -1.5416251 -0.20620365
nan nan nan
3.7037086 -1.563216 -0.48860985
5.3536429 -1.1768333 -0.47557336
2.4306536 -1.0271813 -0.50566638
3.123101 -0.68733919 -0.50042933
1.8091236 -0.76583928 -0.51631749
2.1989603 -0.48336914 -0.51137674
nan nan nan
nan nan nan
4.2256255 -1.7942213 0.7207588
nan nan nan
3.6998012 -1.5714726 0.34862298
nan nan nan
3.6023002 -1.531497 0.067715332
4.7974257 -1.0708518 0.25579196
3.656863 -1.55698 -0.20646533
nan nan nan
3.7048008 -1.5797033 -0.48952261
nan nan nan
2.4180267 -1.0318002 -0.50375998
3.120683 -0.69823664 -0.50042933
1.8130985 -0.77500373 -0.51825607
2.1901243 -0.48946276 -0.50969088
nan nan nan
20.395544 -4.5226059 5.5806236
4.2212896 -1.8106712 0.7211495
nan nan nan
3.6920049 -1.5833951 0.34840509
nan nan nan
3.5992286 -1.5450491 0.067758963
4.6426759 -1.0534829 0.24767992
3.6628714 -1.574671 -0.20711954
nan nan nan
3.6969855 -1.5916436 -0.48921835
nan nan nan
2.4232409 -1.0445482 -0.50566638
3.1132855 -0.70858073 -0.499648
1.7970839 -0.77557319 -0.51437891
2.1955323 -0.49870887 -0.51137674
nan nan nan
20.424395 -4.6038518 5.5929008
4.2353339 -1.8342355 0.7246654
27.762388 -6.3121667 5.5222964
3.6910253 -1.5982543 0.34884086
nan nan nan
3.6006925 -1.5605887 0.067889854
4.5440726 -1.0478957 0.24257714
3.6573524 -1.5874472 -0.20711954
nan nan nan
3.6959577 -1.6065193 -0.48982683
nan nan nan
2.4083319 -1.0480957 -0.50328338
3.1107931 -0.7194438 -0.499648
1.8010048 -0.784742 -0.51631749
2.1842792 -0.50419766 -0.50912893
nan nan nan
20.332869 -4.6578784 5.5722222
4.2379537 -1.8529692 0.72622806
27.670839 -6.3930273 5.5084748
3.6945498 -1.6151232 0.3497124
nan nan nan
3.5975127 -1.5741512 0.067933485
4.4917612 -1.0524086 0.23996036
3.6540751 -1.6012071 -0.20725037
nan nan nan
3.6880555 -1.6184126 -0.48952261
nan nan nan
2.4046588 -1.056496 -0.50328338
3.1106677 -0.73085946 -0.50003862
1.7960448 -0.79004931 -0.51567131
2.1872516 -0.51292175 -0.51025283
nan nan nan
20.057732 -4.6686587 5.5011401
4.2246838 -1.8647568 0.72505605
27.607738 -6.4800506 5.5003729
3.6888893 -1.6280097 0.3497124
nan nan nan
3.5942822 -1.5877104 0.067977123
4.4321856 -1.0548422 0.23695102
3.653029 -1.6159745 -0.20751205
nan nan nan
3.6869197 -1.6332885 -0.49013102
nan nan nan
2.4054418 -1.0668768 -0.50423664
3.1105003 -0.74228299 -0.50042933
1.7998948 -0.7992608 -0.51760995
2.1735933 -0.51775563 -0.50744307
nan nan nan
20.093023 -4.7508588 5.5153565
4.2497196 -1.8935752 0.7305252
nan nan nan
3.6900074 -1.6439202 0.35036609
nan nan nan
3.5887179 -1.600247 0.067977123
4.3726497 -1.0568732 0.2339417
3.6633201 -1.6358495 -0.20842794
nan nan nan
3.678932 -1.6451346 -0.48982683
4.3908176 -1.0628734 -0.39141843
2.4061811 -1.0772755 -0.50518978
3.1006882 -0.75140178 -0.49925736
1.7904855 -0.80256873 -0.51567131
2.1741416 -0.52590758 -0.50800502
13.284599 -5.9793921 3.3526084
19.949505 -4.7905459 5.4804616
4.2926192 -1.9307016 0.73911965
nan nan nan
3.6910594 -1.6598582 0.35101974
5.3826838 -1.3148593 0.67510909
3.5831101 -1.6127642 0.067977123
4.33498 -1.0638344 0.23210996
3.6689651 -1.6537617 -0.20908214
nan nan nan
3.6776888 -1.66001 -0.49043527
4.3822422 -1.0770097 -0.39098349
2.4046416 -1.0866804 -0.50566638
3.1052423 -0.76398015 -0.50042933
1.7942711 -0.8118068 -0.51760995
2.1699259 -0.53291744 -0.50744307
13.25921 -6.0237112 3.3514845
19.855228 -4.8412914 5.4591365
4.3105817 -1.9569117 0.74341685
27.979279 -6.8770962 5.5885429
3.6852429 -1.6727322 0.35101974
5.081759 -1.2604227 0.63768756
3.5820091 -1.6273317 0.068064377
4.3191247 -1.0759548 0.23145577
3.669986 -1.6696635 -0.20947467
nan nan nan
3.6696143 -1.6718075 -0.49013102
4.3784561 -1.0923001 -0.39098349
2.4008341 -1.0950676 -0.50566638
3.095367 -0.77303016 -0.49925736
1.7848389 -0.81504905 -0.51567131
2.1751471 -0.54224181 -0.50912893
nan nan nan
20.009348 -4.9528918 5.50631
4.2655692 -1.9544454 0.7367757
27.876522 -6.9551282 5.5728154
3.6793816 -1.685586 0.35101974
4.9016266 -1.2340857 0.61547804
3.5785787 -1.6408683 0.068108015
4.2717643 -1.0800544 0.22910064
3.6845508 -1.6918497 -0.21065222
4.1844559 -1.059623 -0.074739926
3.6705184 -1.6877198 -0.49104378
4.3770313 -1.1081859 -0.39120096
2.3903112 -1.1003579 -0.50423664
3.0998333 -0.78564 -0.50042933
1.7951369 -0.82735223 -0.51954854
2.1661525 -0.54805332 -0.50744307
nan nan nan
20.092663 -5.0479884 5.5340967
4.3461137 -2.0097785 0.7520113
27.828279 -7.0463719 5.5680494
3.6779954 -1.7005117 0.35145551
4.8131227 -1.2297657 0.60482961
3.5773652 -1.6554515 0.068195276
4.2389407 -1.087544 0.22753055
3.6786225 -1.7047008 -0.21065222
4.1492505 -1.0661694 -0.074172728
3.6668551 -1.7015676 -0.49134803
4.373137 -1.1234579 -0.39120096
2.3886807 -1.1097306 -0.50471324
3.0970719 -0.79645562 -0.50042933
1.7856718 -0.83055156 -0.51760995
2.1760299 -0.55861562 -0.51025283
23.528894 -10.9896 5.9825459
20.276186 -5.1693592 5.5896702
4.4129 -2.0594263 0.76490289
nan nan nan
3.6765501 -1.7154481 0.35189131
4.7223077 -1.2242227 0.59387702
3.5760934 -1.6700463 0.068282537
4.191617 -1.0910594 0.22517544
3.6681273 -1.7154138 -0.21039054
4.104373 -1.069971 -0.073431
3.6541529 -1.7111967 -0.49043527
4.3667779 -1.1380905 -0.39098349
2.3781283 -1.1149316 -0.50328338
3.0990531 -0.80850148 -0.50121063
1.7762061 -0.83369476 -0.51567131
2.1646323 -0.56377155 -0.50800502
23.281061 -10.972983 5.9291601
20.365576 -5.2679009 5.6193957
4.4369535 -2.0895586 0.77037203
nan nan nan
3.6705396 -1.7282712 0.35189131
4.6387916 -1.2199472 0.58383703
3.5702419 -1.6825191 0.068282537
4.1588092 -1.0980669 0.22360536
3.6666322 -1.7303407 -0.21065222
4.0788574 -1.0785637 -0.073038317
3.6481574 -1.7239417 -0.49043527
4.3651876 -1.1539605 -0.39120096
2.3764398 -1.1242772 -0.50375998
3.0962121 -0.81931424 -0.50121063
1.7863747 -0.84610522 -0.51954854
2.1650078 -0.57194144 -0.50856698
nan nan nan
nan nan nan
4.4207134 -2.100791 0.7688095
nan nan nan
3.6689825 -1.7432129 0.35232711
4.5505681 -1.2138296 0.57318866
3.5666041 -1.6960458 0.068326168
4.1115298 -1.1009994 0.22125025
3.6605697 -1.7431291 -0.21065222
4.0485024 -1.0857017 -0.072558373
3.644357 -1.7377347 -0.49073952
4.3731632 -1.1724033 -0.39228821
2.3702867 -1.1315068 -0.50328338
3.0957193 -0.83075362 -0.50160128
1.7768764 -0.8492052 -0.51760995
2.1653523 -0.58012074 -0.50912893
nan nan nan
nan nan nan
4.4133539 -2.1162093 0.7688095
nan nan nan
3.6628754 -1.7560095 0.35232711
4.4816117 -1.212276 0.56497419
3.5651681 -1.7106501 0.068413429
4.081151 -1.1081766 0.21981101
3.6567116 -1.7569782 -0.21078305
4.01091 -1.0906812 -0.071947545
3.6382689 -1.7504452 -0.49073952
4.3642368 -1.1863596 -0.39185333
2.3707435 -1.141907 -0.50423664
3.0880332 -0.8402648 -0.50081998
1.7739012 -0.85540241 -0.51760995
2.1562576 -0.58577442 -0.50744307
nan nan nan
19.817293 -5.3482161 5.4830465
4.3970494 -2.1272967 0.76724684
nan nan nan
3.6634474 -1.772041 0.35298073
4.4199042 -1.2122176 0.55767238
3.5614247 -1.7241747 0.06845706
4.0411415 -1.112515 0.21784841
3.6393268 -1.7642814 -0.21012886
3.9877951 -1.0993819 -0.071598493
3.6254416 -1.7598808 -0.48982683
4.3600693 -1.2015865 -0.39185333
2.3579168 -1.1458783 -0.50233024
3.0922256 -0.85299867 -0.50199193
1.768734 -0.86053061 -0.51696372
2.1612496 -0.59522349 -0.50912893
nan nan nan
19.800833 -5.417995 5.4836926
4.4140024 -2.1545565 0.77154404
31.010717 -8.5465364 6.240047
3.6661904 -1.7891914 0.35385233
4.3678179 -1.2143928 0.55158758
3.5598752 -1.7387922 0.068544321
4.0155849 -1.1205986 0.21667084
3.6465991 -1.7835618 -0.21091388
3.955035 -1.1052539 -0.071074918
3.6237316 -1.7747098 -0.49043527
4.3630462 -1.2188014 -0.39250568
2.3561053 -1.155184 -0.50280684
3.0820918 -0.8618027 -0.50081998
1.7657194 -0.8666994 -0.51696372
2.156811 -0.6021139 -0.50856698
nan nan nan
19.684052 -5.45999 5.4565516
4.3953805 -2.1644921 0.76959074
30.874329 -8.6250334 6.2186003
3.6621566 -1.8030789 0.35407022
4.3181596 -1.2168897 0.54580706
3.5493009 -1.7489959 0.06845706
3.9852149 -1.1271635 0.2152316
3.6381128 -1.7951741 -0.21078305
3.9319072 -1.1136249 -0.070725873
3.6197391 -1.7884485 -0.49073952
4.3779411 -1.2394321 -0.3942453
2.3542573 -1.1644908 -0.50328338
3.0885718 -0.87523544 -0.50238258
1.7691728 -0.87607902 -0.5189023
2.1640778 -0.61227238 -0.51081479
nan nan nan
nan nan nan
4.3852062 -2.1794875 0.76920009
30.903906 -8.7555199 6.2309914
3.6599829 -1.8187079 0.35450599
4.2730989 -1.2211589 0.54063499
3.5518169 -1.7664496 0.068631582
3.9498498 -1.1328495 0.21353069
3.6382117 -1.8118385 -0.21117558
3.8845401 -1.115657 -0.069940507
3.6087193 -1.7994868 -0.49013102
nan nan nan
2.3499734 -1.1731118 -0.50328338
3.0758462 -0.88383543 -0.50081998
1.7659498 -0.88255751 -0.5189023
2.1547904 -0.61819911 -0.50912893
nan nan nan
nan nan nan
4.3599167 -2.1859212 0.76607484
30.941565 -8.8829699 6.244813
3.6580634 -1.8337066 0.35494176
4.225894 -1.2236884 0.53515863
3.547863 -1.779959 0.068675213
3.9290841 -1.1417719 0.21261482
3.6318653 -1.8245273 -0.21117558
3.8686178 -1.1257313 -0.069722362
3.6046324 -1.8131886 -0.49043527
nan nan nan
2.3436735 -1.1802024 -0.50280684
3.0798578 -0.89662725 -0.50199193
1.7671695 -0.89089507 -0.52019477
2.1619813 -0.62841743 -0.51137674
nan nan nan
nan nan nan
4.3522596 -2.2011268 0.76607484
30.714771 -8.9340601 6.205256
3.662751 -1.8520889 0.35603121
4.1644335 -1.2217271 0.52785689
3.5550065 -1.7991109 0.068936996
3.8963253 -1.1470515 0.21104473
3.7457023 -1.8981888 -0.21824093
3.8406808 -1.1321878 -0.069286048
3.5982811 -1.8257601 -0.49043527
5.2821369 -1.5553509 -0.47774792
2.3417265 -1.189489 -0.50328338
3.0767093 -0.90737253 -0.50199193
1.7640489 -0.89705819 -0.52019477
2.1527598 -0.63391048 -0.50969088
nan nan nan
nan nan nan
4.3313546 -2.2095678 0.76373088
nan nan nan
3.6562636 -1.864863 0.35603121
4.1387296 -1.2299172 0.52511871
3.5487049 -1.8115091 0.068936996
3.8851182 -1.1585131 0.21065222
3.7234955 -1.9032909 -0.21732503
3.8462892 -1.1484371 -0.069460578
3.5940948 -1.8394409 -0.49073952
5.2838378 -1.5759089 -0.47840029
2.3331935 -1.1954148 -0.50233024
3.071156 -0.91740334 -0.50160128
1.758759 -0.90210605 -0.51954854
2.1481984 -0.64072967 -0.50912893
22.823399 -11.752674 5.9139876
nan nan nan
4.3345919 -2.2303269 0.76568425
nan nan nan
3.6604733 -1.8839548 0.35712066
4.1032958 -1.2358083 0.52116358
3.5575926 -1.8325235 0.069242418
3.8471737 -1.1633433 0.20882046
3.7427773 -1.9313239 -0.21889512
3.815526 -1.1552593 -0.068980634
3.5848012 -1.8520876 -0.49043527
5.2586718 -1.5904337 -0.47666064
2.3373027 -1.2088808 -0.50423664
3.0699751 -0.92990142 -0.50199193
1.7594101 -0.91138464 -0.52084094
2.1479418 -0.65004873 -0.50969088
22.57937 -11.741907 5.8628497
20.539606 -6.1787515 5.7298965
4.3208308 -2.2461843 0.76490289
24.806862 -7.5180569 5.0271149
3.6591768 -1.9027212 0.35777435
4.0650678 -1.2421535 0.51690423
3.5476685 -1.8462543 0.069198787
3.8233721 -1.1729413 0.20777375
3.6398146 -1.8966798 -0.21326901
3.8058732 -1.1697683 -0.068893373
3.583936 -1.8699096 -0.49134803
5.2448192 -1.6102602 -0.47600827
2.3259077 -1.2148403 -0.50280684
3.0591333 -0.94005167 -0.50081998
1.7470224 -0.91425902 -0.51825607
2.1428702 -0.65832973 -0.50912893
22.562332 -11.85338 5.8712792
20.555122 -6.277421 5.741528
4.3314519 -2.2738483 0.76841879
24.748333 -7.6089282 5.0213962
3.6584578 -1.9202325 0.35842797
4.0173712 -1.2452836 0.51142788
3.551615 -1.8656802 0.06941694
3.8164551 -1.1868747 0.2076429
3.6523864 -1.9211105 -0.21444657
3.7872355 -1.1792672 -0.068631582
3.5657549 -1.8778708 -0.48982683
5.241261 -1.6302104 -0.47622573
2.329906 -1.2283466 -0.50471324
3.0602186 -0.95325303 -0.50160128
1.7523593 -0.92486894 -0.52084094
2.1428869 -0.66652441 -0.50969088
nan nan nan
20.650764 -6.3854938 5.7744846
4.3256707 -2.2901103 0.7688095
24.738028 -7.7003727 5.0247321
3.6605351 -1.9376558 0.35929954
3.9893157 -1.2518952 0.50838548
3.5472896 -1.8792375 0.069460578
3.8051424 -1.1979483 0.20725037
3.6544785 -1.938532 -0.21496993
3.7783263 -1.1909825 -0.068544321
3.5613687 -1.891471 -0.49013102
5.2307854 -1.6470038 -0.4757908
2.3212719 -1.2341646 -0.50375998
3.0498042 -0.96171165 -0.50042933
1.7469896 -0.92984349 -0.52019477
2.1498473 -0.67690784 -0.51193869
nan nan nan
20.621431 -6.4553752 5.7725458
4.3524952 -2.323817 0.77505994
24.81399 -7.8191113 5.045702
3.6603391 -1.9539434 0.35995322
3.9756792 -1.2621245 0.50716853
3.5451167 -1.8939661 0.069547832
3.8033173 -1.2119788 0.20738122
3.6740992 -1.9654197 -0.21654001
3.7550881 -1.1981076 -0.068195276
3.5547445 -1.903891 -0.49013102
5.2321258 -1.6675155 -0.4764432
2.323653 -1.2453378 -0.50518978
3.0607197 -0.97630215 -0.50277323
1.7330992 -0.93021494 -0.51696372
2.1405039 -0.68220323 -0.51025283
12.951097 -6.974194 3.3852017
20.673595 -6.5470405 5.7932248
4.3773742 -2.3558033 0.78091973
nan nan nan
3.664458 -1.9726157 0.36104268
3.9334369 -1.2638906 0.50230068
3.534416 -1.9033395 0.069460578
3.7802608 -1.2184789 0.2063345
3.6653643 -1.9764066 -0.21640916
3.7413647 -1.2081465 -0.068020746
3.5549605 -1.9192078 -0.49104378
5.2313089 -1.6863811 -0.47687811
2.3128176 -1.2499363 -0.50375998
3.0502403 -0.98471433 -0.50160128
1.7340871 -0.9385621 -0.51825607
2.1405499 -0.69004029 -0.51081479
12.913831 -7.012383 3.38183
20.634514 -6.6140079 5.7887011
4.4168606 -2.3969984 0.78951412
nan nan nan
3.6666501 -1.9895115 0.36191419
3.9124763 -1.27226 0.50017101
3.5431228 -1.9240223 0.069765992
3.7736101 -1.2308955 0.20620365
3.6715999 -1.9963505 -0.21719421
3.7206988 -1.2151339 -0.067715332
3.5504181 -1.9327928 -0.49134803
5.2230229 -1.7038611 -0.47666064
2.3127484 -1.2603538 -0.50471324
3.0514812 -0.99688256 -0.50238258
1.7246084 -0.94083148 -0.51631749
2.1334932 -0.69600648 -0.50969088
12.919186 -7.0738006 3.3896973
20.592924 -6.680038 5.7835317
4.4582782 -2.4396837 0.79849923
nan nan nan
3.6618674 -2.0034947 0.3621321
3.8891475 -1.2797254 0.49773705
3.5363853 -1.9363784 0.069765992
3.7669187 -1.2432806 0.20607282
3.653666 -2.0031486 -0.21654001
3.7093115 -1.2257695 -0.06758444
3.5436499 -1.9451743 -0.49134803
5.2170429 -1.7220824 -0.47666064
2.3126349 -1.2707859 -0.50566638
3.0479827 -1.0075282 -0.50238258
1.7297734 -0.95150989 -0.5189023
2.137995 -0.70572597 -0.51137674
12.9328 -7.1400523 3.3998125
20.518995 -6.7353206 5.7693152
4.4994516 -2.4826875 0.80748433
25.617355 -8.4620867 5.2325273
3.6657524 -2.022285 0.36322156
3.8613291 -1.2848076 0.49469468
3.5405426 -1.9547565 0.069984145
3.7601871 -1.2556341 0.20594198
nan nan nan
3.7097533 -1.2402896 -0.067671701
3.534668 -1.9563293 -0.49104378
5.2062745 -1.7387087 -0.47622573
2.308408 -1.2784479 -0.50566638
3.0352528 -1.0145124 -0.50081998
1.7179983 -0.95284849 -0.51631749
2.137831 -0.71395159 -0.51193869
12.940977 -7.2006698 3.4082417
nan nan nan
4.5127702 -2.5096035 0.81139088
25.614759 -8.5555382 5.2377696
3.6630228 -2.0374916 0.36365736
3.8474097 -1.2951221 0.4934777
3.5405922 -1.970136 0.070115037
3.7536361 -1.2673005 0.20581114
nan nan nan
3.6982949 -1.2508372 -0.06754081
3.5238278 -1.9656203 -0.49043527
5.20048 -1.7559639 -0.47622573
2.3017895 -1.2852999 -0.50518978
3.041054 -1.0282516 -0.50238258
1.7209817 -0.9623819 -0.51825607
2.1308324 -0.71948797 -0.51081479
nan nan nan
nan nan nan
4.5125957 -2.5301743 0.81295347
25.663794 -8.6715946 5.253974
3.6649339 -2.0545027 0.36452889
3.8266437 -1.3022958 0.49134803
3.5380526 -1.984931 0.070202306
3.7468259 -1.2795911 0.2056803
nan nan nan
3.6846621 -1.2598704 -0.067366287
3.5212698 -1.9803436 -0.49104378
5.1896033 -1.7725 -0.4757908
2.295377 -1.2917207 -0.50471324
3.0329525 -1.0367397 -0.50160128
1.7219865 -0.9704591 -0.51954854
2.1260011 -0.72613889 -0.51025283
nan nan nan
nan nan nan
nan nan nan
25.63722 -8.7574453 5.2544508
3.664243 -2.0709624 0.36518258
3.815033 -1.3132302 0.49043527
3.5358012 -1.9991152 0.07028956
3.7425621 -1.292009 0.2056803
nan nan nan
3.6873322 -1.2751673 -0.067497179
3.5082088 -1.9883361 -0.49013102
5.1884069 -1.7913216 -0.47622573
2.2951212 -1.3021504 -0.50566638
3.0339847 -1.0489274 -0.50238258
1.710194 -0.97168374 -0.51696372
2.1189728 -0.73160434 -0.50912893
22.626137 -12.89829 5.9999666
nan nan nan
nan nan nan
nan nan nan
3.6595185 -2.0843356 0.36540046
3.7942455 -1.3201847 0.4883056
3.5331435 -2.0139229 0.070376821
3.7380295 -1.3050652 0.2056803
nan nan nan
3.6783619 -1.285744 -0.067409918
3.5077085 -2.004266 -0.49104378
5.1797709 -1.8086026 -0.47600827
2.2865312 -1.3073148 -0.50471324
3.0258253 -1.0573603 -0.50160128
1.7132463 -0.98095566 -0.5189023
2.1233108 -0.74139154 -0.51081479
22.524099 -12.939269 5.9842319
nan nan nan
nan nan nan
nan nan nan
3.660857 -2.1020613 0.366272
3.7872725 -1.3326001 0.48800135
3.5372803 -2.0318584 0.070594981
3.7266154 -1.3149697 0.20528778
nan nan nan
3.6714938 -1.2977456 -0.067366287
3.4967432 -2.0134087 -0.49043527
5.1760941 -1.8265961 -0.47622573
2.2819541 -1.3152883 -0.50471324
3.0244453 -1.0687354 -0.50199193
1.7035403 -0.983302 -0.51696372
2.1231391 -0.74923444 -0.51137674
22.455608 -13.004383 5.9780502
nan nan nan
nan nan nan
21.616102 -7.6340652 4.4451938
3.6538663 -2.1141896 0.366272
3.7802589 -1.3449829 0.48769712
3.5323288 -2.0454471 0.070638612
3.724355 -1.3288063 0.20541862
4.334559 -2.5135088 -0.26076391
3.6601052 -1.3073994 -0.067235395
3.4939849 -2.0280957 -0.49104378
5.1673398 -1.8438179 -0.47600827
2.2731066 -1.3207768 -0.50375998
3.0253494 -1.0809411 -0.50277323
1.7065296 -0.99259454 -0.5189023
2.1205108 -0.75664103 -0.51137674
22.298582 -13.017589 5.948267
nan nan nan
nan nan nan
21.547716 -7.6946254 4.436615
3.659368 -2.1344655 0.36757934
3.7685337 -1.3556584 0.48678443
3.5294838 -2.060287 0.070725873
3.7196937 -1.3417987 0.20541862
4.3106742 -2.5197985 -0.259848
3.6602232 -1.3218601 -0.067322649
3.4804611 -2.0365171 -0.49013102
5.1702461 -1.8652169 -0.47687811
2.272716 -1.3311872 -0.50471324
3.0169106 -1.0898237 -0.50199193
1.696808 -0.99487478 -0.51696372
2.1109774 -0.76157242 -0.50969088
22.274002 -13.107702 5.9538865
nan nan nan
nan nan nan
21.504568 -7.7639632 4.4332786
3.6540415 -2.1484892 0.36779723
3.7570179 -1.3656129 0.48587167
3.5395002 -2.0827436 0.071074918
3.707948 -1.3522167 0.20502611
4.3319583 -2.5525858 -0.26167977
3.6508887 -1.3329196 -0.067235395
3.4776044 -2.051177 -0.49073952
5.1590223 -1.8815502 -0.4764432
2.2598388 -1.3337209 -0.50280684
3.0156007 -1.1006655 -0.50238258
1.6850133 -0.99586844 -0.51437891
2.1174672 -0.77225643 -0.51193869
nan nan nan
19.258003 -6.9838438 5.4720612
nan nan nan
21.338053 -7.7839575 4.4042063
3.6550877 -2.1663146 0.36866879
3.7452378 -1.3761594 0.48495898
3.5304246 -2.0931938 0.071031287
3.7081308 -1.3662261 0.20528778
4.4372206 -2.6345308 -0.26861426
3.6509056 -1.3473809 -0.067322649
3.4707832 -2.0626979 -0.49073952
5.1597676 -1.9012252 -0.47709551
2.2572775 -1.3428571 -0.50328338
3.0094225 -1.1103338 -0.50199193
1.6877475 -1.0054584 -0.51631749
2.1126072 -0.7784363 -0.51137674
nan nan nan
19.108786 -7.0053329 5.4365196
nan nan nan
nan nan nan
3.6671231 -2.189924 0.37062982
3.7311025 -1.3857791 0.48374203
3.5338221 -2.1119211 0.071249448
3.7033391 -1.3791615 0.20528778
4.4901085 -2.687206 -0.27240863
3.6464176 -1.3594803 -0.067322649
3.4656901 -2.0760767 -0.49104378
5.1460962 -1.9166228 -0.4764432
2.2546802 -1.3519921 -0.50375998
3.0078433 -1.1216913 -0.50238258
1.6802651 -1.0085598 -0.51502508
2.1053081 -0.78411496 -0.51025283
nan nan nan
19.020803 -7.0485101 5.418426
nan nan nan
nan nan nan
3.659456 -2.2027111 0.37062982
3.7285666 -1.399664 0.48404625
3.5414126 -2.1332791 0.071554862
3.70084 -1.392957 0.20541862
4.4379559 -2.6770568 -0.26979184
3.64165 -1.3722004 -0.067322649
3.4541748 -2.0855944 -0.49043527
5.1440382 -1.9363252 -0.47687811
2.2520468 -1.3611251 -0.50423664
2.9992859 -1.1304486 -0.50160128
1.6870596 -1.0206795 -0.51825607
2.10484 -0.79231262 -0.51081479
nan nan nan
19.096851 -7.148778 5.4468589
nan nan nan
20.347187 -7.6610155 4.2154751
3.6649048 -2.2225883 0.37193713
3.7241511 -1.4113708 0.48404625
3.5364552 -2.1463089 0.071598493
3.6962004 -1.4052218 0.20541862
4.2434835 -2.578886 -0.25840878
3.6300683 -1.3816098 -0.067191757
3.4514787 -2.0996187 -0.49104378
5.1306024 -1.9507233 -0.47622573
2.2540455 -1.3720261 -0.50566638
3.0003376 -1.1416153 -0.50238258
1.6836656 -1.0262684 -0.51825607
2.102201 -0.79928821 -0.51081479
nan nan nan
18.867456 -7.1343832 5.3880544
nan nan nan
20.353786 -7.7406535 4.2221475
3.6592488 -2.2366674 0.37215504
3.7122471 -1.4217075 0.48313355
3.5421097 -2.1658537 0.071860276
3.6915202 -1.4174711 0.20541862
4.156147 -2.5446787 -0.2535677
3.6298916 -1.3960618 -0.067279026
3.4423819 -2.109755 -0.49073952
5.124105 -1.9677263 -0.47622573
2.2450607 -1.3773161 -0.50471324
2.9940283 -1.1511986 -0.50199193
1.6800731 -1.0321392 -0.51825607
2.0949869 -0.80451763 -0.50969088
13.18429 -8.1246538 3.5644646
18.876282 -7.2131224 5.3977475
nan nan nan
nan nan nan
3.6560519 -2.2514033 0.37259081
3.7165225 -1.4382286 0.4843505
3.5451653 -2.1847668 0.072078437
3.6865501 -1.4303482 0.20541862
4.0771432 -2.5158789 -0.24924998
3.627327 -1.4096266 -0.067322649
3.4413285 -2.1256738 -0.49165228
5.1191812 -1.9873931 -0.4764432
2.2464983 -1.3890208 -0.50614297
2.9807799 -1.1580788 -0.50042933
1.6682518 -1.0329041 -0.51567131
2.0942969 -0.81306767 -0.51025283
13.178611 -8.1847658 3.5706458
18.810432 -7.2633195 5.3861156
15.906605 -9.8795061 2.9568691
nan nan nan
3.6456602 -2.2634737 0.37237293
3.7091675 -1.4502919 0.48404625
3.5435014 -2.2017064 0.072209328
3.6836083 -1.4447595 0.20554946
4.0170321 -2.4991338 -0.24610983
3.6223843 -1.4222798 -0.067322649
3.4314079 -2.1369596 -0.49134803
5.1098938 -2.004343 -0.47622573
2.2416363 -1.396854 -0.50614297
2.9790192 -1.1693757 -0.50081998
1.6748742 -1.0451236 -0.5189023
2.0982547 -0.82302785 -0.51193869
13.022588 -8.1541367 3.5363669
18.851181 -7.3585448 5.4055018
15.811691 -9.9010401 2.9459307
22.33782 -8.7680235 4.6534653
3.6398478 -2.2775075 0.37259081
3.7084446 -1.4656959 0.48465472
3.548502 -2.2220273 0.072471112
3.6808643 -1.4585258 0.2056803
3.9681051 -2.4879267 -0.24362385
3.6220472 -1.4367535 -0.067409918
3.4197257 -2.1462841 -0.49073952
5.1098142 -2.0249143 -0.47687811
2.2302701 -1.4011396 -0.50471324
2.9793062 -1.1821012 -0.50160128
1.6712159 -1.0509635 -0.5189023
2.0885696 -0.82766867 -0.51025283
12.948727 -8.1709385 3.524004
nan nan nan
15.841768 -9.9970322 2.9580414
22.065239 -8.7500944 4.6029463
3.6318755 -2.2901993 0.37259081
3.696389 -1.4758793 0.48374203
3.5512908 -2.241075 0.072689272
3.687345 -1.4759911 0.2063345
3.9024258 -2.4657338 -0.2400912
3.6239734 -1.4521692 -0.06754081
3.4164059 -2.1608629 -0.49134803
5.1027145 -2.0427384 -0.47687811
2.2191477 -1.4049734 -0.50328338
2.9751618 -1.1924938 -0.50160128
1.6675371 -1.0567908 -0.5189023
2.0879312 -0.83585489 -0.51081479
12.922179 -8.2173958 3.5245657
nan nan nan
15.896365 -10.109258 2.9748394
nan nan nan
3.6301632 -2.3068731 0.37324446
3.6937768 -1.489054 0.48404625
3.5476635 -2.2561424 0.072776534
3.6868014 -1.4907198 0.20659618
3.8495827 -2.4511633 -0.23734355
3.6119282 -1.462005 -0.067409918
3.4046586 -2.1701059 -0.49073952
5.088624 -2.0577426 -0.47622573
2.2165449 -1.4136457 -0.50375998
2.9666102 -1.2005072 -0.50081998
1.6557016 -1.0573977 -0.51631749
2.0872607 -0.84404653 -0.51137674
13.030231 -8.3469429 3.5616546
15.231764 -6.1281357 4.383852
16.014526 -10.259166 3.0033572
nan nan nan
3.6325722 -2.3262508 0.37433392
3.6793594 -1.498206 0.4828293
3.550683 -2.2746408 0.072994687
3.6910877 -1.5067011 0.20711954
3.8036168 -2.4396379 -0.23498842
3.6068029 -1.4746041 -0.067409918
3.3974435 -2.1813843 -0.49073952
5.0817728 -2.0746059 -0.47622573
2.2074697 -1.4187176 -0.50280684
2.9624019 -1.2108552 -0.50081998
1.6540302 -1.0644798 -0.51696372
2.0821934 -0.85004753 -0.51081479
nan nan nan
15.216992 -6.1839924 4.3857908
nan nan nan
nan nan nan
3.6499448 -2.354495 0.37694857
3.6741073 -1.5110402 0.4828293
3.5448205 -2.2883778 0.073038317
3.683497 -1.5186272 0.20698869
3.7908859 -2.4501884 -0.23472677
3.603945 -1.4881365 -0.067453548
3.3814778 -2.1878345 -0.48952261
5.0741343 -2.0932176 -0.47622573
2.2148576 -1.4344277 -0.50566638
2.9650085 -1.2240056 -0.50199193
1.6422045 -1.0649829 -0.51437891
2.0790639 -0.85767347 -0.51081479
nan nan nan
nan nan nan
nan nan nan
nan nan nan
3.647553 -2.371933 0.37760225
3.666518 -1.5229068 0.48252505
3.5489764 -2.3095407 0.073300101
3.6871288 -1.5359473 0.20751205
3.786062 -2.4667933 -0.23498842
3.605653 -1.5035857 -0.06758444
3.3775914 -2.2029266 -0.49013102
5.0759959 -2.1147404 -0.47709551
2.2077825 -1.4408076 -0.50518978
2.9629984 -1.2352948 -0.50238258
1.6425176 -1.0733548 -0.51567131
2.0760572 -0.8649255 -0.51081479
7.5507812 -4.95011 2.0747285
nan nan nan
7.5151329 -4.9267435 1.4161252
nan nan nan
3.6663234 -2.4024072 0.38043481
3.6634691 -1.5366533 0.4828293
3.551342 -2.3287733 0.073518261
3.6817448 -1.5488085 0.20751205
3.7836878 -2.4841075 -0.23538096
3.5980778 -1.5151951 -0.06754081
3.3640482 -2.2100248 -0.48921835
5.0662866 -2.1314821 -0.47687811
2.1986408 -1.4458057 -0.50423664
2.9518366 -1.2427654 -0.50121063
1.6367452 -1.0777516 -0.51502508
2.0797675 -0.87498724 -0.51250064
7.5058689 -4.9563231 2.0668612
21.055511 -8.812746 6.0982327
7.47609 -4.9366651 1.4118279
nan nan nan
3.6791167 -2.4282799 0.38261372
3.6652114 -1.5516877 0.48374203
3.5581954 -2.3501866 0.073823676
3.6719902 -1.5590628 0.20725037
3.7837565 -2.5021527 -0.23590431
3.595335 -1.5280936 -0.06758444
3.3670442 -2.2280197 -0.49073952
5.0591908 -2.1482708 -0.47687811
2.1938343 -1.4530888 -0.50423664
2.9476993 -1.2525473 -0.50121063
1.6351736 -1.0845101 -0.51567131
2.0768545 -0.88187915 -0.51250064
7.471139 -4.9690409 2.0618036
21.012825 -8.8768845 6.0943561
7.4411764 -4.9491181 1.408312
nan nan nan
3.7000711 -2.4597819 0.38566414
3.6643386 -1.5664177 0.4843505
3.5607848 -2.3689003 0.074041829
3.6667998 -1.5712311 0.20725037
3.7837472 -2.5202258 -0.23642768
3.5925465 -1.5409905 -0.067628071
3.3613105 -2.2411366 -0.49104378
5.0543289 -2.1660149 -0.47709551
2.1928291 -1.4634652 -0.50518978
2.9410386 -1.2618586 -0.50081998
1.6315682 -1.0899266 -0.51567131
2.0671957 -0.88589662 -0.51081479
7.4497018 -4.9923768 2.0606797
21.026142 -8.969121 6.1072798
7.4053974 -4.962687 1.4047961
15.034961 -6.4489861 3.1703041
3.7286973 -2.4976468 0.38958615
3.6634073 -1.5811605 0.48495898
3.5732512 -2.3952425 0.074478142
3.661293 -1.584021 0.20725037
3.7811446 -2.5375946 -0.23682021
3.5825555 -1.5515399 -0.06754081
3.351408 -2.2514715 -0.49073952
5.0513101 -2.1856186 -0.47753045
2.1877074 -1.4711108 -0.50518978
2.9456849 -1.2760302 -0.50238258
1.6397666 -1.103718 -0.51954854
2.0596149 -0.89118135 -0.50969088
7.4362674 -5.0210776 2.0618036
nan nan nan
7.3941669 -4.9926524 1.4059681
14.987584 -6.4907079 3.1650617
3.7571034 -2.5357409 0.39350817
3.6533134 -1.5919611 0.4843505
3.5772929 -2.4161003 0.074739926
3.6603193 -1.5987852 0.20751205
nan nan nan
3.5768449 -1.5646602 -0.06754081
3.3455825 -2.2645483 -0.49104378
5.0386996 -2.2021272 -0.47709551
2.182559 -1.4787383 -0.50518978
2.9389489 -1.2853186 -0.50199193
1.6297188 -1.1056473 -0.51760995
2.0652714 -0.90260822 -0.51193869
7.4207096 -5.0483751 2.0623655
nan nan nan
7.3766947 -5.0184326 1.4059681
14.985077 -6.5518279 3.1693511
3.7786634 -2.5705192 0.3967765
3.6568244 -1.6086905 0.48556748
3.5849392 -2.4404557 0.07508897
3.6612906 -1.6152053 0.20790458
nan nan nan
3.575937 -1.5791506 -0.067628071
3.3290639 -2.271198 -0.48982683
5.0355406 -2.221709 -0.47753045
2.1773839 -1.4863479 -0.50518978
2.932184 -1.2945756 -0.50160128
1.6358116 -1.1181531 -0.52084094
2.0598772 -0.90883303 -0.51137674
7.4142079 -5.0838075 2.0657372
nan nan nan
7.3725047 -5.0552139 1.4087026
nan nan nan
3.7758288 -2.5879202 0.39743018
3.6395595 -1.6170578 0.48404625
3.5949454 -2.4656873 0.075481653
3.6579125 -1.6289889 0.20803542
5.564507 -3.8220918 -0.35195929
3.5726869 -1.5926383 -0.067671701
3.3211157 -2.2828047 -0.48982683
5.0277553 -2.2392728 -0.47753045
2.1739423 -1.495711 -0.50566638
2.9274197 -1.3053138 -0.50160128
1.6239479 -1.1183695 -0.51825607
2.0589199 -0.91700435 -0.51193869
7.4184613 -5.1248922 2.0719187
nan nan nan
7.360909 -5.0851302 1.4098747
nan nan nan
3.7749672 -2.6067483 0.39830172
3.6338928 -1.6297525 0.48404625
3.5986509 -2.4867523 0.075743437
3.6567607 -1.6437895 0.2082971
5.5141859 -3.8159099 -0.34960416
3.5693867 -1.6061226 -0.067715332
3.3131268 -2.2943835 -0.48982683
5.0221806 -2.2578287 -0.47774792
2.1687081 -1.5032903 -0.50566638
2.9183388 -1.313504 -0.50081998
1.6180513 -1.1226528 -0.51760995
2.0490348 -0.92120284 -0.51025283
7.4445076 -5.1813807 2.0842817
13.036486 -5.8365903 3.8126075
7.3714828 -5.130548 1.4153438
13.464052 -6.0588422 2.8605182
nan nan nan
3.6281815 -1.6424272 0.48404625
3.6104569 -2.5135896 0.07617975
3.657824 -1.6596308 0.20868962
5.4619279 -3.8079946 -0.3471182
3.5637584 -1.6185724 -0.067715332
3.307132 -2.3073552 -0.49013102
5.0165372 -2.2763729 -0.47796535
2.1554031 -1.5052251 -0.50375998
2.9182353 -1.3257191 -0.50160128
1.6081885 -1.1241373 -0.51567131
2.0524678 -0.93135589 -0.51193869
nan nan nan
13.018234 -5.8830543 3.8132536
nan nan nan
13.427177 -6.0987043 2.8571818
nan nan nan
3.6292012 -1.6581678 0.48495898
3.6180274 -2.537667 0.076528795
3.6497376 -1.6713519 0.20855878
5.403666 -3.7954552 -0.34423974
3.5671806 -1.6351581 -0.067889854
3.3010869 -2.320313 -0.49043527
5.0017653 -2.2907643 -0.47731298
2.152142 -1.5141532 -0.50423664
2.91359 -1.3358976 -0.50160128
1.6042547 -1.1297441 -0.51567131
2.0492043 -0.93851465 -0.51193869
nan nan nan
nan nan nan
nan nan nan
13.434813 -6.1588225 2.8633776
nan nan nan
3.6211362 -1.6697896 0.48465472
3.6193516 -2.5574975 0.076746956
3.6506836 -1.6872162 0.20895129
5.3455591 -3.7825561 -0.34136128
3.5705304 -1.6517875 -0.068064377
3.2970166 -2.3346918 -0.49104378
4.9982619 -2.3102961 -0.47774792
2.1388388 -1.515974 -0.50233024
2.9089091 -1.3460598 -0.50160128
1.6042382 -1.1381358 -0.51696372
2.0459156 -0.94566202 -0.51193869
14.712419 -10.472562 4.1578865
nan nan nan
14.249109 -10.142711 2.7615416
nan nan nan
nan nan nan
3.6197875 -1.6845082 0.48526323
3.6348307 -2.5875213 0.077270523
3.642508 -1.6988965 0.20882046
5.29777 -3.7765465 -0.33913699
3.5624766 -1.6631861 -0.068020746
3.2868273 -2.3447442 -0.49073952
4.9856505 -2.3256271 -0.47731298
2.1435151 -1.5305686 -0.50471324
2.9064317 -1.3572471 -0.50199193
1.598292 -1.1423225 -0.51631749
2.0359731 -0.94972199 -0.51025283
14.438233 -10.353479 4.0904522
21.06094 -9.7812834 6.2042103
14.207597 -10.18807 2.7603695
nan nan nan
nan nan nan
3.6161325 -1.6981856 0.48556748
nan nan nan
3.6433358 -1.7147827 0.20921297
5.2480612 -3.7687926 -0.33678186
3.5656993 -1.6798623 -0.068195276
3.2786224 -2.3562031 -0.49073952
4.9775023 -2.3430161 -0.47731298
2.1321857 -1.5337378 -0.50328338
2.9039114 -1.3684337 -0.50238258
1.5982119 -1.1507206 -0.51760995
2.0436761 -0.96198797 -0.5130626
14.457291 -10.443762 4.1061869
21.044167 -9.862937 6.2093801
14.155936 -10.226033 2.7572446
nan nan nan
26.086432 -18.846428 2.812516
3.6124263 -1.7118579 0.48587167
nan nan nan
3.6418409 -1.729627 0.20947467
5.1863379 -3.7519548 -0.33364171
3.5620725 -1.693369 -0.068238907
3.2703781 -2.3676331 -0.49073952
4.9670429 -2.3593099 -0.47709551
2.1288052 -1.5426127 -0.50375998
2.894654 -1.3764474 -0.50160128
1.5902784 -1.1534528 -0.51631749
2.0381033 -0.96807528 -0.51250064
nan nan nan
nan nan nan
14.138123 -10.288463 2.7607603
nan nan nan
25.960075 -18.893402 2.8059793
3.6064289 -1.7244571 0.48587167
6.7311325 -4.9007044 0.14472407
3.635781 -1.7423289 0.20947467
5.1490035 -3.7523842 -0.33207163
3.5558419 -1.7064134 -0.068238907
3.258085 -2.3761084 -0.49013102
4.9561162 -2.3764246 -0.47687811
2.1273699 -1.5529311 -0.50471324
2.8965149 -1.3897383 -0.50277323
1.5996784 -1.1692626 -0.52084094
2.0323427 -0.97448999 -0.51193869
nan nan nan
nan nan nan
14.175804 -10.391777 2.7752147
nan nan nan
nan nan nan
3.6003871 -1.7370355 0.48587167
6.6869307 -4.9061146 0.14415687
3.6361165 -1.7588967 0.20986716
5.1070499 -3.7505338 -0.33023986
3.545362 -1.7166419 -0.068151645
3.2493544 -2.3880339 -0.49013102
4.9545188 -2.3969581 -0.47753045
2.1179838 -1.5574368 -0.50375998
2.8894222 -1.3987678 -0.50238258
1.5917004 -1.1719719 -0.51954854
2.0289288 -0.98157823 -0.51193869
nan nan nan
nan nan nan
14.199184 -10.489152 2.7873249
nan nan nan
nan nan nan
3.5943019 -1.7495927 0.48587167
6.7099605 -4.9591484 0.14502949
3.6344442 -1.7737633 0.21012886
5.0578079 -3.7416012 -0.32788476
3.5505846 -1.7344799 -0.068369798
3.235018 -2.3949299 -0.48921835
4.9416437 -2.4120569 -0.47709551
2.1223896 -1.5721315 -0.50614297
2.8756409 -1.4045231 -0.50081998
1.5934148 -1.1818424 -0.52148712
2.0232985 -0.98759043 -0.51137674
14.413648 -10.721668 4.1359701
nan nan nan
14.027627 -10.434476 2.7603695
nan nan nan
nan nan nan
3.6015444 -1.768676 0.48769712
6.7796903 -5.0455623 0.14690562
3.6330252 -1.7880057 0.21039054
5.0233541 -3.7419407 -0.32644552
3.5445082 -1.7468632 -0.068369798
3.2330244 -2.4100962 -0.49013102
4.9403238 -2.431725 -0.47774792
2.1070595 -1.5721852 -0.50375998
2.8751535 -1.416729 -0.50160128
1.5815464 -1.1816081 -0.5189023
2.0222003 -0.99536592 -0.51193869
14.294263 -10.710556 4.1123681
nan nan nan
nan nan nan
nan nan nan
nan nan nan
3.5975733 -1.7823361 0.48800135
nan nan nan
3.6334732 -1.8039994 0.21078305
4.9942894 -3.7474608 -0.32539877
3.5406284 -1.7603353 -0.068413429
3.228559 -2.4243486 -0.49073952
4.924684 -2.446497 -0.47709551
2.1152837 -1.589862 -0.50709617
2.8724036 -1.4278525 -0.50199193
1.5851251 -1.1929377 -0.52148712
2.0229063 -1.0049297 -0.5130626
nan nan nan
nan nan nan
nan nan nan
nan nan nan
nan nan nan
3.5957716 -1.7970967 0.48860985
nan nan nan
3.6290703 -1.8184206 0.21091388
4.9526477 -3.7446525 -0.32356703
3.5389333 -1.7749199 -0.06850069
3.2216294 -2.4376638 -0.49104378
4.9161139 -2.4636724 -0.47709551
2.0960324 -1.5868566 -0.50375998
2.8629842 -1.4356629 -0.50121063
1.5713357 -1.1911596 -0.51825607
2.0084858 -1.00655 -0.51025283
nan nan nan
nan nan nan
5.8933978 -4.4806833 1.1657152
15.321166 -7.684093 3.321861
5.8446264 -4.4435983 0.63928741
3.5939109 -1.8118666 0.48921835
5.896214 -4.4860978 0.12871149
3.6271598 -1.8333249 0.21117558
4.9494743 -3.7694836 -0.32422122
3.5394113 -1.7906398 -0.068631582
3.2131009 -2.4488945 -0.49104378
4.9008136 -2.4774528 -0.4764432
2.1021829 -1.6031011 -0.50661957
2.8667755 -1.4500936 -0.50277323
1.5690862 -1.1981049 -0.5189023
2.0114889 -1.0168384 -0.51193869
5.8577261 -4.4842696 1.6937248
nan nan nan
5.8628244 -4.4881897 1.1625899
15.34379 -7.7592101 3.3323462
5.8646636 -4.4912376 0.64320934
3.5875645 -1.8244007 0.48921835
5.8694015 -4.4965014 0.12844969
3.6255119 -1.8476052 0.21143726
4.9369469 -3.785876 -0.32422122
3.5398223 -1.8063846 -0.068762474
3.1970916 -2.45349 -0.48982683
4.8925714 -2.4936907 -0.4764432
2.0926838 -1.6074365 -0.50566638
2.8572938 -1.4578533 -0.50199193
1.5610687 -1.2006264 -0.51760995
2.0102785 -1.024605 -0.51250064
5.8266077 -4.4927855 1.6892291
nan nan nan
5.8373466 -4.5010858 1.1606365
15.360339 -7.8350129 3.3418779
5.8359346 -4.5000119 0.64168411
3.5900106 -1.8414323 0.49043527
5.8477349 -4.5123796 0.12831882
3.6301486 -1.8659434 0.21209145
4.9375296 -3.8137732 -0.32513714
3.5357194 -1.8198713 -0.068806104
3.1924322 -2.4676714 -0.49043527
4.892261 -2.516155 -0.47731298
2.0909398 -1.6177378 -0.50661957
2.8543849 -1.4689451 -0.50238258
1.5606837 -1.2090299 -0.5189023
2.0086782 -1.0330758 -0.5130626
5.8089662 -4.5116019 1.6886672
nan nan nan
5.8235488 -4.5229497 1.1610273
nan nan nan
5.8174357 -4.5198431 0.64146626
3.5879717 -1.856228 0.49104378
5.8311572 -4.5337825 0.12831882
3.6255026 -1.880383 0.21222229
4.9176087 -3.8272429 -0.32474461
3.5337849 -1.8345006 -0.068893373
3.1814096 -2.4778302 -0.49013102
4.8812366 -2.5320718 -0.47709551
2.0756066 -1.6174772 -0.50423664
2.8492401 -1.4788998 -0.50238258
1.5545512 -1.2129828 -0.51825607
2.0007303 -1.0378466 -0.51193869
5.7923913 -4.5328622 1.6886672
nan nan nan
5.8088765 -4.5457854 1.161418
nan nan nan
5.8173113 -4.5524049 0.64320934
3.5858731 -1.8710322 0.49165228
5.8349719 -4.5695262 0.12875512
3.6344109 -1.9011099 0.21313816
4.874754 -3.8212729 -0.32278201
3.5340071 -1.8502953 -0.069024265
3.1746926 -2.4904528 -0.49043527
4.8767834 -2.5514004 -0.47753045
2.0776656 -1.630779 -0.50614297
2.8462493 -1.4899787 -0.50277323
1.5541024 -1.2213901 -0.51954854
1.9992563 -1.045949 -0.51250064
5.7945452 -4.565619 1.6937248
19.854361 -10.340762 5.9806237
nan nan nan
13.18541 -6.9012761 2.8833947
nan nan nan
3.5881088 -1.88815 0.4928692
nan nan nan
3.6302965 -1.9143138 0.21326901
4.842463 -3.821944 -0.3214736
3.5319502 -1.8649492 -0.069111526
3.1625237 -2.497889 -0.48982683
4.8660917 -2.5663984 -0.47731298
2.0719604 -1.6380216 -0.50614297
2.8366606 -1.4976053 -0.50199193
1.5460453 -1.2238059 -0.51825607
1.9893059 -1.0491771 -0.51081479
nan nan nan
19.773243 -10.38643 5.9670534
nan nan nan
13.152556 -6.9426799 2.8814883
nan nan nan
3.5836895 -1.901824 0.49317345
nan nan nan
3.630209 -1.9304835 0.21366154
4.8193226 -3.8310533 -0.32081938
3.5254188 -1.8772668 -0.069111526
3.1537852 -2.5089133 -0.48982683
4.8566532 -2.5842164 -0.47731298
2.0623925 -1.6421839 -0.50518978
2.8357782 -1.5098127 -0.50277323
1.5474247 -1.2337174 -0.52019477
1.9919056 -1.0598809 -0.51250064
nan nan nan
19.820105 -10.49946 5.9922552
12.96454 -10.365562 2.6205153
13.167243 -7.009294 2.8900669
nan nan nan
3.5748396 -1.9131535 0.4928692
nan nan nan
3.6319139 -1.9484873 0.21418488
4.779923 -3.8283939 -0.31911847
3.5298622 -1.8954616 -0.069329679
3.1445684 -2.5204554 -0.48982683
4.8432121 -2.5988023 -0.47687811
2.0547342 -1.6478362 -0.50471324
2.8304906 -1.5197022 -0.50277323
1.5412271 -1.2375973 -0.51954854
1.9774492 -1.0610904 -0.50969088
13.306596 -10.719288 3.9336674
19.890129 -10.630067 6.0252118
12.868775 -10.366531 2.6087954
nan nan nan
nan nan nan
3.5768802 -1.9303246 0.49408618
nan nan nan
3.6360765 -1.9670808 0.2148391
4.7607021 -3.8403516 -0.31872594
3.5232244 -1.9077715 -0.069329679
3.137681 -2.5329762 -0.49013102
4.8297281 -2.6133256 -0.4764432
2.0546937 -1.6596289 -0.50614297
2.8208225 -1.527228 -0.50199193
1.5275161 -1.2353673 -0.51631749
1.9780232 -1.0702964 -0.51081479
13.235032 -10.734195 3.9229901
19.827126 -10.681083 6.0168114
12.767211 -10.3547 2.5951226
nan nan nan
13.189952 -10.701474 1.482955
3.5744822 -1.9451658 0.49469468
nan nan nan
3.6361122 -1.9827058 0.2152316
4.7130675 -3.827776 -0.31637084
3.5275197 -1.9260353 -0.069547832
3.1234896 -2.5386693 -0.48921835
4.8319731 -2.6352801 -0.47753045
2.0450828 -1.6636907 -0.50518978
2.8111362 -1.5347049 -0.50121063
1.5288076 -1.2452729 -0.51825607
1.9787451 -1.0791737 -0.51193869
nan nan nan
19.895842 -10.807845 6.0491219
12.713778 -10.385141 2.5916066
22.771126 -12.425605 5.0309277
13.146679 -10.738852 1.4820833
3.5763774 -1.9623961 0.49591163
nan nan nan
3.6313584 -1.9965867 0.21536244
4.7151322 -3.8568547 -0.31741756
3.525157 -1.940743 -0.069635101
3.1222863 -2.5558474 -0.49043527
4.8200984 -2.6517739 -0.47731298
2.039263 -1.6708193 -0.50518978
2.8100917 -1.5468838 -0.50199193
1.5207201 -1.2475348 -0.51696372
1.9726396 -1.0852491 -0.51137674
nan nan nan
19.919426 -10.910862 6.0678616
12.696517 -10.445147 2.5955131
22.695358 -12.487275 5.0237789
13.059159 -10.747395 1.4766362
3.5716782 -1.9760669 0.49621585
nan nan nan
3.6371241 -2.0171337 0.2161475
4.6894083 -3.8645804 -0.31663251
3.5183613 -1.9530362 -0.069635101
3.109071 -2.564115 -0.48982683
4.8064551 -2.6661708 -0.47687811
2.03531 -1.6794909 -0.50566638
2.8046749 -1.5566834 -0.50199193
1.5237973 -1.2589957 -0.51954854
1.9667068 -1.0909511 -0.51081479
13.438814 -11.138799 4.0185223
nan nan nan
12.614428 -10.455366 2.5865281
22.694504 -12.595375 5.0337873
13.165361 -10.912127 1.4929779
3.5712638 -1.9921416 0.49712861
nan nan nan
3.6300609 -2.0298173 0.2161475
4.6758895 -3.8809259 -0.31663251
3.5202529 -1.970179 -0.069809623
3.1001017 -2.5749521 -0.48982683
4.7949448 -2.6817183 -0.47666064
2.0313213 -1.6881551 -0.50614297
2.8013804 -1.5676669 -0.50238258
1.5119739 -1.2581208 -0.51696372
1.9586294 -1.0954399 -0.50969088
13.27837 -11.080278 3.9814332
nan nan nan
12.663098 -10.566759 2.6037171
22.787561 -12.746017 5.0638127
13.220866 -11.03623 1.5036545
3.5794373 -2.0130935 0.49925828
nan nan nan
3.6363678 -2.0491838 0.21693254
4.6534176 -3.8884032 -0.31597832
3.5220675 -1.9873585 -0.069984145
3.0934482 -2.5868106 -0.49013102
4.7643189 -2.6853933 -0.47448608
2.0272973 -1.696812 -0.50661957
2.7980437 -1.5786463 -0.50277323
1.5149708 -1.2696029 -0.51954854
1.9592354 -1.1043127 -0.51081479
13.32166 -11.19553 4.0061593
nan nan nan
12.514613 -10.517153 2.5806682
22.702311 -12.802585 5.0547576
13.19754 -11.091228 1.5051798
3.5702286 -2.0243542 0.49895403
nan nan nan
3.6378803 -2.066788 0.21745588
4.6340871 -3.8997984 -0.31558579
3.5194571 -2.0021079 -0.070071407
3.0843995 -2.5975928 -0.49013102
nan nan nan
2.0213618 -1.7038783 -0.50661957
2.7903681 -1.5871859 -0.50238258
1.5086857 -1.2733239 -0.5189023
1.9615355 -1.1150849 -0.51250064
13.408929 -11.348994 4.0443721
nan nan nan
12.474057 -10.557583 2.5798872
22.751366 -12.935107 5.0757279
nan nan nan
3.5696075 -2.0404913 0.49986678
nan nan nan
3.6324487 -2.0813465 0.21758673
4.6197624 -3.9167571 -0.31558579
3.5232954 -2.0205865 -0.07028956
3.0748582 -2.6088803 -0.49013102
nan nan nan
2.0135319 -1.709334 -0.50614297
2.7826667 -1.5956911 -0.50199193
1.5060705 -1.2801485 -0.51954854
1.9597471 -1.123132 -0.5130626
13.293104 -11.334832 4.021894
nan nan nan
12.506671 -10.664121 2.5947318
nan nan nan
nan nan nan
3.5793142 -2.0634568 0.50230068
nan nan nan
3.6294873 -2.0965061 0.21784841
4.5984697 -3.9263728 -0.31506246
3.5227172 -2.0366185 -0.070420451
3.0751619 -2.6276624 -0.49165228
nan nan nan
2.0091176 -1.718299 -0.50661957
2.778939 -1.6071125 -0.50238258
1.4942603 -1.2791088 -0.51696372
1.951591 -1.1275373 -0.51193869
13.135189 -11.279582 3.985929
13.04019 -7.5068288 4.016808
12.553663 -10.780113 2.6123111
nan nan nan
nan nan nan
3.5720897 -2.0759385 0.50230068
nan nan nan
3.6264651 -2.1116705 0.2181101
4.5847363 -3.9424005 -0.31506246
3.5220699 -2.0526717 -0.070551351
3.0603304 -2.633522 -0.49073952
4.4761147 -2.6072845 -0.44926137
1.9975321 -1.7204928 -0.50518978
2.7690423 -1.6143217 -0.50160128
1.4952691 -1.2890528 -0.5189023
1.9476432 -1.1343428 -0.51193869
13.042306 -11.279146 3.9696324
12.903181 -7.48809 3.982559
12.560779 -10.862638 2.6216872
nan nan nan
nan nan nan
3.5780418 -2.0952818 0.50412613
16.282816 -14.092186 0.37527034
3.6212261 -2.1255782 0.21824093
4.5615134 -3.9502051 -0.31440824
3.5235095 -2.0700085 -0.070725873
3.0492444 -2.6425624 -0.49043527
4.4433494 -2.6090422 -0.44686934
1.9918158 -1.7271075 -0.50518978
2.7679355 -1.6259907 -0.50238258
1.483472 -1.2879243 -0.51631749
1.952085 -1.1460506 -0.5141865
12.890931 -11.223147 3.9347911
12.880363 -7.5320559 3.9832053
12.556346 -10.9318 2.6283283
nan nan nan
nan nan nan
3.5899503 -2.1190901 0.50686431
16.260494 -14.167454 0.37583756
3.616308 -2.1388435 0.21837178
4.5465069 -3.9636686 -0.31427738
3.5227189 -2.0861089 -0.070856765
3.0498102 -2.6608212 -0.4919565
4.3874927 -2.5959044 -0.44208536
1.9876225 -1.7356652 -0.50566638
2.7643692 -1.6368979 -0.50277323
1.4844168 -1.2978688 -0.51825607
1.9398769 -1.1475736 -0.51193869
12.85534 -11.27129 3.9359152
12.872721 -7.5880027 3.9890213
12.497687 -10.957654 2.6240311
22.52215 -13.330202 5.0757279
nan nan nan
3.5867994 -2.1341414 0.50747275
16.19779 -14.212586 0.37553215
3.617403 -2.156558 0.21889512
4.5232658 -3.9712765 -0.31362319
3.5218592 -2.1022294 -0.070987664
3.0386403 -2.669812 -0.49165228
4.3608289 -2.6017747 -0.4403457
1.9778682 -1.7393488 -0.50471324
2.7522721 -1.6427498 -0.50160128
1.4762555 -1.2998471 -0.51696372
1.9335631 -1.1534321 -0.51137674
nan nan nan
12.904299 -7.6674137 4.0071149
12.451958 -10.994673 2.6224682
22.612488 -13.490442 5.1067061
nan nan nan
3.5984931 -2.1581142 0.51021093
16.13061 -14.258613 0.37518308
3.6180389 -2.1749377 0.2194185
4.5124192 -3.9911375 -0.31388488
3.5230722 -2.1196551 -0.071162179
3.0325494 -2.6842222 -0.49226075
4.3367724 -2.6080098 -0.43882355
1.9736208 -1.7478706 -0.50518978
2.746521 -1.652347 -0.50160128
1.4735146 -1.3065963 -0.51760995
1.9337058 -1.1626767 -0.51250064
nan nan nan
nan nan nan
12.483524 -11.104251 2.6377039
22.783726 -13.706025 5.1567488
nan nan nan
3.5951877 -2.1732249 0.51081938
16.067669 -14.303197 0.37487766
3.6125612 -2.1888449 0.21954931
4.4910049 -4.0002193 -0.31336153
3.5220683 -2.1358213 -0.071293078
3.0268638 -2.6980953 -0.4928692
4.2978086 -2.6050856 -0.43577915
1.9711682 -1.7580189 -0.50614297
2.7407367 -1.6619239 -0.50160128
1.4653451 -1.3085111 -0.51631749
1.9212919 -1.1643862 -0.51025283
13.217466 -11.835986 4.0848322
nan nan nan
12.431918 -11.132406 2.6345785
22.666784 -13.738268 5.1405444
12.490068 -11.188436 1.4639986
3.591821 -2.1883385 0.51142788
16.027596 -14.363073 0.37505218
3.6223416 -2.211201 0.22059603
4.4795732 -4.016758 -0.31349236
3.523128 -2.1533074 -0.071467601
3.0105159 -2.7014856 -0.49165228
4.2933993 -2.6219156 -0.43621406
1.9686689 -1.7681712 -0.50709617
2.7349191 -1.6714808 -0.50160128
