# .PCD v0.7 - Point Cloud Data file format
VERSION 0.7
FIELDS x y z
SIZE 4 4 4
TYPE F F F
COUNT 1 1 1
WIDTH 1685
HEIGHT 1
VIEWPOINT 0 0 0 1 0 0 0
POINTS 1685
DATA ascii
0.87128472 2.3171811 -0.56307638
15.090969 24.863045 6.7012835
nan nan nan
15.007245 24.725101 4.5702753
9.3567228 24.853764 5.1505532
8.3264484 13.719798 1.4010285
9.8999023 26.186432 3.4281793
8.2942457 13.65599 0.27827862
12.717267 33.553833 1.8787299
6.502193 10.693654 -0.65406859
nan nan nan
2.4467967 4.0215893 -0.57288444
2.7720838 7.2962646 -0.67845857
1.5117111 2.4821818 -0.55761516
1.3023096 3.4226792 -0.57387251
1.1018071 1.807321 -0.55702841
0.88195115 2.3209622 -0.56476223
15.206906 24.858009 6.7142081
5.1272416 13.548559 3.8668885
15.137275 24.744181 4.5835576
9.4530163 24.846184 5.1557956
8.3911877 13.71827 1.4038612
10.002757 26.181849 3.4321344
8.3575258 13.652534 0.27880219
12.704879 33.171165 1.8597581
6.5394816 10.670892 -0.65406859
7.0818939 18.465202 -0.34459773
2.4595218 4.0109091 -0.57258016
2.7912965 7.2702646 -0.67693639
1.5242219 2.4831619 -0.5590449
1.3107159 3.4088891 -0.57230985
1.1093754 1.8055205 -0.55767465
0.89004749 2.3178694 -0.56476223
15.328109 24.86076 6.7293811
5.2107048 13.62533 3.8940291
15.254664 24.741634 4.5929332
9.5476103 24.833652 5.1600847
8.4677811 13.735532 1.4086548
10.108379 26.183815 3.4370024
8.4169455 13.642422 0.27919486
12.69538 32.802967 1.8415715
6.5845642 10.660744 -0.65485364
7.1138091 18.356457 -0.34302703
2.470897 3.9980786 -0.57197165
2.8094621 7.2418971 -0.67519677
1.529003 2.4715676 -0.55761516
1.3234985 3.4065959 -0.57270056
1.1131243 1.7975327 -0.55638218
0.89462513 2.3056579 -0.56251442
15.454656 24.871243 6.7468014
5.3686986 13.893187 3.9760971
15.378734 24.749056 4.6042624
9.6528912 24.848215 5.1700931
8.5353937 13.737617 1.4119229
10.208668 26.18483 3.4415658
8.4882784 13.651164 0.27998021
12.698012 32.47245 1.8254782
6.6230559 10.639813 -0.65498447
7.1268353 18.20116 -0.34058368
2.4808996 3.9831119 -0.57105899
2.8374467 7.2390046 -0.67584914
1.5371907 2.4664836 -0.55761516
1.333889 3.3998885 -0.57230985
1.1219532 1.7977318 -0.55767465
0.90532255 2.3093297 -0.56420028
15.564195 24.863214 6.7586021
nan nan nan
15.485618 24.737686 4.6116848
9.7513628 24.857195 5.1786718
8.6110563 13.752065 1.4164988
10.310007 26.174433 3.4449124
8.5587177 13.663187 0.28080922
12.677298 32.105053 1.8071605
6.6583028 10.617791 -0.65498447
7.1333499 18.032047 -0.33787856
2.4980533 3.9811668 -0.57197165
2.8568602 7.2179732 -0.67476183
1.541871 2.4548709 -0.55618536
1.3457487 3.3952117 -0.57230985
1.1256461 1.7897179 -0.55638218
0.91119063 2.3017812 -0.56307638
15.695086 24.878782 6.777709
nan nan nan
15.60745 24.739866 4.6222324
9.849822 24.852669 5.1848679
8.6805325 13.761345 1.4204206
10.417818 26.179789 3.4503887
8.6277113 13.667044 0.28150728
nan nan nan
6.7073317 10.613478 -0.65616202
7.152679 17.897936 -0.33582792
2.510608 3.9703259 -0.57166743
2.8860674 7.2143931 -0.6754142
1.5491167 2.4474008 -0.55570877
1.357592 3.3904932 -0.57230985
1.1305919 1.7837392 -0.55573595
0.91781962 2.2938995 -0.56195247
15.809279 24.867014 6.7895098
nan nan nan
15.718885 24.724827 4.6296549
9.9492788 24.850033 5.1915402
8.7589836 13.773568 1.4249965
10.51839 26.166288 3.4534311
8.7032499 13.675394 0.28233629
nan nan nan
6.7502122 10.59514 -0.65655458
7.1842504 17.79636 -0.33438808
2.5264778 3.9631896 -0.57197165
2.9056423 7.1904168 -0.67410952
1.5563291 2.4399102 -0.55523217
1.3675727 3.3811531 -0.57152855
1.1381133 1.7818159 -0.55638218
0.92582124 2.2906816 -0.56195247
15.917405 24.835562 6.7968149
nan nan nan
15.846714 24.725256 4.6405935
10.057775 24.856627 5.2005954
8.8325443 13.782745 1.4291363
10.631962 26.171246 3.4592118
8.7846737 13.697529 0.28342706
7.2407417 17.775206 1.0040653
6.7965994 10.586217 -0.65747046
7.2085977 17.678581 -0.33264285
2.5362709 3.9480851 -0.57105899
2.9344833 7.1894565 -0.67497927
1.5692474 2.4403794 -0.55666196
1.379956 3.3761182 -0.57152855
1.1417083 1.7737733 -0.55508983
0.93656099 2.2942071 -0.56363833
16.048943 24.849422 6.8159218
nan nan nan
15.971779 24.72994 4.6519222
10.1584 24.855446 5.2077441
8.9049253 13.789486 1.4330583
10.733609 26.159227 3.4625585
8.8527889 13.69827 0.28408155
7.3160357 17.782148 1.005897
6.834866 10.564523 -0.65760124
7.2245998 17.542358 -0.33054855
2.5500364 3.9392076 -0.57105899
2.95103 7.1584406 -0.67302221
1.5777564 2.4348869 -0.55666196
1.3907931 3.3689969 -0.57113791
1.1518409 1.7758521 -0.55702841
0.94271493 2.2864165 -0.56251442
16.180765 24.862665 6.8350277
nan nan nan
16.111885 24.756819 4.6675482
10.261947 24.86067 5.2163229
8.99648 13.825112 1.4400307
10.834536 26.157881 3.4671221
8.9295359 13.717015 0.28508502
nan nan nan
6.882133 10.560623 -0.65877879
7.2224712 17.364695 -0.32766891
2.5630853 3.9307299 -0.57105899
2.9776189 7.1555157 -0.67367458
1.5898503 2.4358044 -0.55809176
1.4023167 3.3668916 -0.57152855
1.1537554 1.7659609 -0.55508983
0.95215535 2.2877791 -0.56363833
16.253454 24.80356 6.8327799
nan nan nan
16.243725 24.788692 4.6831746
10.354146 24.862295 5.2234721
9.0658073 13.836358 1.4441707
10.935572 26.156153 3.4716856
8.9955378 13.718682 0.28573951
nan nan nan
6.9225969 10.546091 -0.65930218
7.2344565 17.240492 -0.32574913
2.5754218 3.9226584 -0.57105899
2.9965155 7.1341181 -0.67258728
1.5934472 2.4246476 -0.55666196
1.4115658 3.3576679 -0.57074726
1.1609344 1.7641413 -0.55573595
0.9587974 2.2823613 -0.56307638
16.343668 24.761721 6.8361516
nan nan nan
16.30135 24.697594 4.6761427
10.449843 24.859497 5.230144
9.1418257 13.851944 1.4489642
11.041535 26.16547 3.4777703
9.0754271 13.740916 0.28683028
7.2086687 17.037043 0.96769178
6.9657941 10.535571 -0.66008723
7.2399516 17.094404 -0.32343671
2.5890987 3.9136446 -0.57105899
3.0123906 7.1057935 -0.67084765
1.6032574 2.4211159 -0.55713856
1.4261638 3.3595424 -0.5719192
1.1641059 1.7562584 -0.5544436
0.96825427 2.2836585 -0.56420028
16.504206 24.81608 6.8670592
nan nan nan
16.474987 24.772127 4.7011447
10.549017 24.85224 5.2363396
nan nan nan
11.14447 26.154165 3.4814215
9.1621189 13.767414 0.28805193
7.230844 16.924526 0.96271992
7.0066805 10.517424 -0.66047972
7.2514453 16.9564 -0.32129878
2.6054981 3.908711 -0.57166743
3.03424 7.0883651 -0.67019528
1.611699 2.4155047 -0.55713856
1.4369122 3.352273 -0.57152855
1.1729156 1.7561984 -0.55573595
0.97621977 2.2802646 -0.56420028
nan nan nan
nan nan nan
16.57098 24.728827 4.7038794
10.650199 24.849102 5.2434888
nan nan nan
11.255304 26.160694 3.4875062
9.2393579 13.778943 0.28896818
nan nan nan
7.0544848 10.509483 -0.66152644
7.2620273 16.810371 -0.31902996
2.6177413 3.8975329 -0.57136321
3.0523028 7.0589037 -0.66845566
1.6214914 2.4119 -0.55761516
1.4456713 3.3404348 -0.57035661
1.177994 1.7498854 -0.55508983
0.98168254 2.2699585 -0.56251442
nan nan nan
10.755914 24.987219 7.2698021
16.705564 24.742455 4.7175522
10.754412 24.85232 5.2520676
22.32086 33.04562 3.4857938
11.363354 26.159941 3.4926782
nan nan nan
nan nan nan
7.1041512 10.500097 -0.66257316
7.2757201 16.681807 -0.31706658
2.6278338 3.8817499 -0.57045048
3.0749345 7.0436397 -0.66802073
1.6285229 2.4041944 -0.55713856
1.456337 3.3331039 -0.5699659
1.1827376 1.7437652 -0.5544436
0.98571765 2.2575803 -0.56026655
10.552923 15.508255 4.3191667
10.858013 24.971991 7.2769108
16.825312 24.723928 4.7257557
10.859181 24.844219 5.2587399
22.462698 33.006622 3.489934
11.471118 26.145388 3.4963291
nan nan nan
nan nan nan
7.1435733 10.479361 -0.66283488
7.2926321 16.562506 -0.31527773
2.6413677 3.8725531 -0.57045048
3.0904748 7.0123467 -0.66606367
1.6373239 2.3982093 -0.55713856
1.4705318 3.3322644 -0.57074726
1.1860883 1.7356408 -0.55315113
0.99848402 2.2652802 -0.56307638
10.640057 15.51954 4.3326535
10.965492 24.980381 7.2904806
16.954803 24.728178 4.7378664
10.966636 24.853317 5.2687483
22.635523 33.012226 3.4988675
11.582403 26.150566 3.5024137
nan nan nan
7.4602642 16.800076 0.96154231
7.1815224 10.456418 -0.66296571
7.2986517 16.420444 -0.31305254
2.6534631 3.8612649 -0.57014626
3.111901 6.9946885 -0.66541129
1.644293 2.3904581 -0.55666196
1.4791486 3.3203406 -0.56957531
1.1989965 1.7414296 -0.55638218
1.0034268 2.2550988 -0.56139052
10.602776 15.350026 4.2955647
11.062404 24.964031 7.2969427
17.074707 24.717602 4.747242
11.065303 24.841789 5.2744675
22.794506 32.996532 3.5056219
11.689815 26.146225 3.5072818
25.94165 37.523746 0.79565519
7.5372324 16.814943 0.96389741
7.2407131 10.464131 -0.66505915
7.3109283 16.294508 -0.31113276
2.6669252 3.851979 -0.57014626
3.1281464 6.9656029 -0.66367161
1.6540265 2.3867202 -0.55713856
1.4937594 3.3219173 -0.57074726
1.2023115 1.7332675 -0.55508983
1.0122864 2.2538066 -0.56195247
10.62846 15.272936 4.2843256
11.170178 24.971565 7.310513
17.191916 24.702436 4.7558365
11.174082 24.852261 5.2849526
22.955074 32.982174 3.5125942
11.799377 26.145975 3.512758
25.976751 37.295544 0.79273194
7.6030822 16.804457 0.96481329
7.2800517 10.442887 -0.66532081
7.3213849 16.166414 -0.30916938
2.6860363 3.8507848 -0.57136321
3.1503882 6.9501038 -0.66323674
1.663754 2.3829436 -0.55761516
1.5043283 3.3144331 -0.57035661
1.205584 1.7251036 -0.55379736
1.0221509 2.2547002 -0.56307638
nan nan nan
11.273172 24.96764 7.3208528
17.321987 24.704947 4.7679467
11.272928 24.839924 5.2906713
23.122972 32.977291 3.5206563
11.90908 26.145277 3.5182345
25.956011 36.989803 0.78815067
7.6482196 16.748287 0.96311241
7.3379869 10.448054 -0.66728342
7.3431859 16.057625 -0.30759865
2.6923242 3.8312371 -0.56984198
3.1716995 6.9294491 -0.66236693
1.6720618 2.3771214 -0.55761516
1.5117863 3.3001766 -0.56879395
1.2174685 1.7285659 -0.55638218
1.0304078 2.2509387 -0.56307638
nan nan nan
11.379277 24.969894 7.3331299
17.442316 24.692738 4.7773228
11.382044 24.849514 5.3011565
23.311243 32.987911 3.5308971
12.016848 26.139622 3.523102
25.948517 36.692383 0.78383112
7.768064 16.84712 0.97043943
7.3820028 10.429239 -0.66780674
7.3520823 15.929751 -0.30563524
2.7106533 3.8274171 -0.57075477
3.1916964 6.9092894 -0.66149712
1.6760887 2.3652661 -0.55618536
1.5243303 3.2971222 -0.56918466
1.2234949 1.7243056 -0.55638218
1.0362238 2.2429016 -0.56195247
8.5764837 12.049302 3.4037461
11.487876 24.965319 7.3441153
17.585691 24.703068 4.7917767
11.486433 24.836588 5.3073525
23.471025 32.969231 3.5376518
12.126152 26.124668 3.5270574
25.944448 36.416325 0.77986073
nan nan nan
7.4299607 10.419668 -0.66885352
7.3675599 15.817877 -0.30397728
2.7239971 3.8179317 -0.57075477
3.2094891 6.8845587 -0.66019237
1.6876016 2.3630993 -0.55713856
1.5353631 3.2892742 -0.56879395
1.2295064 1.7200243 -0.55638218
1.046097 2.2436903 -0.56307638
8.5957756 11.987618 3.3947549
11.592237 24.962305 7.3551011
17.696281 24.67564 4.7984176
11.592772 24.838598 5.3164077
23.63677 32.957928 3.5452776
12.237262 26.124878 3.5328379
25.842571 36.006729 0.77301067
nan nan nan
7.477942 10.409889 -0.66990018
7.3727827 15.685727 -0.30192661
2.7358582 3.8063855 -0.57045048
3.2282066 6.862042 -0.65910512
1.692971 2.3532119 -0.55618536
1.5468353 3.2838948 -0.56879395
1.2355028 1.7157221 -0.55638218
1.0508237 2.2334065 -0.56139052
nan nan nan
11.697742 24.961056 7.3667331
17.81846 24.663757 4.8081841
11.697176 24.83573 5.3245101
23.808556 32.953949 3.5537753
12.349583 26.126875 3.5389228
25.84214 35.742104 0.76925838
nan nan nan
7.5318012 10.40799 -0.67147028
7.384171 15.561481 -0.30005047
2.7462161 3.7927938 -0.56984198
3.2544029 6.8524141 -0.65932256
1.7040578 2.3512599 -0.55713856
1.5530028 3.2673178 -0.56684071
1.2361022 1.7033691 -0.55379736
1.0590026 2.2295401 -0.56139052
nan nan nan
11.805442 24.963739 7.3796568
17.955305 24.671284 4.8218575
11.805911 24.841297 5.3345184
23.993679 32.955051 3.5633624
12.462064 26.128405 3.5450075
25.831648 35.453213 0.76506978
nan nan nan
7.5801964 10.394433 -0.67238617
7.3985291 15.452185 -0.29843614
2.7644897 3.7887146 -0.57075477
3.2707779 6.8252864 -0.65780038
1.7064613 2.3373728 -0.55523217
1.5665283 3.2663321 -0.56762201
1.2434676 1.7009922 -0.5544436
1.0667787 2.2258298 -0.56139052
8.3209324 11.347396 3.2379701
11.918701 24.966072 7.3932271
18.087963 24.66305 4.8331861
11.91598 24.837692 5.3430972
24.166018 32.949417 3.5718601
12.554269 26.086981 3.5453117
25.839878 35.205654 0.7616666
nan nan nan
7.6326962 10.39004 -0.67382544
7.4046049 15.327218 -0.29651636
2.7762272 3.7770431 -0.57045048
3.2913342 6.8070993 -0.657148
1.7189757 2.3373301 -0.55666196
1.5789932 3.2630684 -0.56801265
1.2479638 1.694698 -0.55379736
1.0745417 2.2220926 -0.56139052
8.3295689 11.280551 3.2267311
12.019231 24.963406 7.4042125
18.206326 24.65259 4.8429523
12.014307 24.831181 5.350246
24.337128 32.940975 3.5801401
12.640919 26.034069 3.5440948
25.824247 34.940872 0.75778341
nan nan nan
7.6819582 10.384741 -0.67513382
7.4219408 15.22712 -0.29507655
2.7902143 3.7698097 -0.57075477
3.3029873 6.7737551 -0.65497345
1.7227374 2.3254027 -0.55523217
1.5925349 3.2619774 -0.56879395
1.256753 1.6942083 -0.55508983
1.0819046 2.2185171 -0.56139052
8.326725 11.194728 3.2104344
12.125284 24.960403 7.4158444
18.367441 24.689924 4.8628759
12.123511 24.835409 5.3602548
24.510153 32.946007 3.589509
12.753543 26.034357 3.5501795
nan nan nan
nan nan nan
7.7345734 10.379881 -0.67657304
7.4331565 15.115872 -0.29341859
2.8048403 3.7620358 -0.57105899
3.3244967 6.7548981 -0.65432113
1.726437 2.3134773 -0.55380243
1.5995585 3.2475324 -0.56723136
1.2626592 1.689811 -0.55508983
1.0900286 2.2145369 -0.56139052
8.3759785 11.17924 3.2143681
12.231462 24.956966 7.4274759
18.509787 24.700747 4.8777208
12.227472 24.828165 5.3678799
24.689003 32.933666 3.5980067
12.858631 26.018604 3.5541348
nan nan nan
nan nan nan
7.796555 10.383403 -0.67866647
7.4414654 15.000253 -0.29167333
2.8111537 3.7418137 -0.56953776
3.3380997 6.7231698 -0.65236402
1.7404057 2.31528 -0.55570877
1.6141728 3.2485673 -0.5684033
1.2670959 1.6834648 -0.5544436
1.1009901 2.2172699 -0.56307638
8.5813208 11.366189 3.2773068
12.344261 24.955265 7.4404001
18.646326 24.693823 4.8898311
12.338045 24.822746 5.3764586
24.874353 32.940693 3.6082475
12.970403 26.015755 3.5599153
12.410891 16.425169 0.35873422
nan nan nan
7.8463097 10.374043 -0.67984402
7.4602385 14.907116 -0.29036438
2.825696 3.7339563 -0.56984198
3.3593197 6.7070217 -0.65192908
1.7455112 2.3052793 -0.55475557
1.6232952 3.2384953 -0.56762201
1.277347 1.684801 -0.55638218
1.108723 2.2134132 -0.56307638
8.6484547 11.376451 3.2885458
12.445268 24.950935 7.4513855
18.77594 24.694752 4.9023323
12.437881 24.816801 5.3840842
25.046486 32.928986 3.6165276
13.083428 26.014664 3.5660002
12.52735 16.465477 0.36052307
8.5804443 17.02059 0.99713075
7.9063859 10.381727 -0.68206829
7.4232864 14.704679 -0.28691757
2.8320441 3.7166731 -0.56862509
3.3759356 6.6847253 -0.65084183
1.7550373 2.3011227 -0.55523217
1.6357012 3.2350142 -0.56801265
1.2817526 1.678414 -0.55573595
1.1116803 2.2010188 -0.56082857
8.7532892 11.431286 3.3132718
12.551819 24.946177 7.4630175
nan nan nan
12.54989 24.823612 5.3950458
25.22521 32.936699 3.6265507
13.208947 26.037441 3.5754316
12.604517 16.447437 0.36109024
8.6760006 17.061756 1.0013176
7.9562559 10.371892 -0.68324584
7.4348922 14.600704 -0.28539044
2.8465116 3.7087324 -0.56892926
3.3992844 6.6700878 -0.65062439
1.7600663 2.2910922 -0.55427903
1.6458644 3.2270837 -0.56762201
1.2802328 1.6643651 -0.55250502
1.1230465 2.2034469 -0.56251442
8.7976027 11.406446 3.3149576
12.662859 24.949593 7.4772339
nan nan nan
12.654298 24.814638 5.4026713
25.41423 32.932747 3.6363556
13.315575 26.022102 3.5796909
12.670827 16.409042 0.36126477
8.7453108 17.043171 1.0021026
8.0155973 10.370313 -0.68507767
7.4584193 14.521292 -0.2843433
2.8600855 3.6982744 -0.56892926
3.4168601 6.6471033 -0.64953709
1.7665497 2.2829947 -0.55380243
1.6571189 3.2213187 -0.56762201
1.2889963 1.6637017 -0.55379736
1.1274018 2.1930075 -0.56082857
8.812439 11.339507 3.3048425
12.770727 24.935259 7.486927
8.7324734 11.236618 2.2458768
12.770981 24.818285 5.4136329
nan nan nan
13.437046 26.035006 3.5879054
12.569945 16.161501 0.35677078
8.8242483 17.050236 1.0043269
8.0716877 10.367876 -0.68677855
nan nan nan
2.8668747 3.6804404 -0.56771231
3.4366071 6.6285005 -0.64888477
1.7760183 2.278749 -0.55427903
1.6683534 3.2155149 -0.56762201
1.291821 1.6553869 -0.55250502
1.138402 2.1955528 -0.56251442
nan nan nan
12.876605 24.937838 7.5004973
8.7635994 11.199821 2.244314
12.867899 24.804121 5.4198289
nan nan nan
13.54388 26.018761 3.5921648
nan nan nan
8.9142151 17.085077 1.0081213
8.1306725 10.372487 -0.68887198
nan nan nan
2.8790641 3.6709135 -0.56771231
3.4539599 6.6082363 -0.6480149
1.7869947 2.2763944 -0.55523217
1.6772833 3.2052929 -0.56684071
1.3005798 1.6546623 -0.55379736
1.1411785 2.1831217 -0.56026655
nan nan nan
12.991454 24.946293 7.5166526
8.8072271 11.174979 2.2454863
12.983974 24.815592 5.43222
8.8040361 11.170913 1.2413156
13.662292 26.024059 3.5994666
nan nan nan
9.0156345 17.133406 1.0128316
8.1838503 10.365594 -0.69031125
5.8701158 11.138075 -0.21915859
2.8949385 3.6647346 -0.56832081
3.4723551 6.5845137 -0.64692765
1.7934066 2.2682185 -0.55475557
1.6884617 3.1994185 -0.56684071
1.3018453 1.644436 -0.55185878
1.1525695 2.185395 -0.56195247
nan nan nan
nan nan nan
nan nan nan
13.091126 24.809193 5.4407988
8.8216858 11.109317 1.2380474
13.777425 26.022266 3.6058555
8.7660904 11.031405 0.24533719
nan nan nan
8.2466593 10.366786 -0.69240469
5.900753 11.102064 -0.21885316
2.9083509 3.6540997 -0.56832081
3.4859736 6.5547562 -0.64518803
1.8043735 2.2657821 -0.55570877
1.7007767 3.1956866 -0.56723136
1.3105923 1.6436553 -0.55315113
1.1590509 2.1792054 -0.56139052
nan nan nan
nan nan nan
nan nan nan
13.210792 24.815207 5.4527135
8.8588543 11.07651 1.2378294
13.895049 26.024366 3.6128533
8.8139162 11.012446 0.24559897
nan nan nan
8.2952862 10.353521 -0.6934514
5.9453707 11.092416 -0.21907131
2.922641 3.6458607 -0.56862509
3.5076571 6.5403523 -0.64497054
1.8107349 2.2575564 -0.55523217
1.7119213 3.1897302 -0.56723136
1.3148079 1.6371889 -0.55250502
1.1655034 2.1729975 -0.56082857
nan nan nan
7.5154982 14.065416 4.2578425
19.853119 24.651247 5.0019493
13.324332 24.829653 5.4655819
8.917779 11.070731 1.240662
14.010504 26.021593 3.6192422
8.8519554 10.985104 0.2456426
7.4749327 13.849701 0.82298285
8.3530903 10.355101 -0.69541395
nan nan nan
2.9300373 3.6303573 -0.56771231
3.521045 6.5133433 -0.64344841
1.8232344 2.2569461 -0.55666196
1.7230451 3.1837351 -0.56723136
1.3250761 1.6382183 -0.5544436
1.1703939 2.1648304 -0.55970466
11.140889 13.736362 4.0719075
7.4637952 13.851975 4.2009764
20.024607 24.687267 5.0234351
13.421431 24.802418 5.469871
nan nan nan
14.130841 26.02705 3.6268482
8.8839445 10.946376 0.24546808
7.5184603 13.814752 0.82245952
8.4065056 10.347192 -0.69685322
nan nan nan
2.9426916 3.6201074 -0.56771231
3.5401874 6.4944506 -0.64279598
1.8264512 2.2448602 -0.55523217
1.7294273 3.1690249 -0.5656687
1.3259212 1.6282015 -0.55250502
1.1802675 2.165014 -0.56082857
11.031559 13.504972 4.0145884
7.5167108 13.834326 4.2035608
20.159092 24.676497 5.0355453
13.520852 24.779118 5.4751134
nan nan nan
14.246625 26.023279 3.6332371
8.9695663 10.973352 0.24677701
7.5342255 13.72932 0.81892687
8.4615479 10.340967 -0.69842327
7.5517917 13.749977 -0.27321741
2.9521649 3.6059749 -0.56710386
3.5568445 6.471137 -0.64170873
1.8280491 2.2308822 -0.55332577
1.7440419 3.1694636 -0.56684071
1.334663 1.627295 -0.55379736
1.1901566 2.1651549 -0.56195247
nan nan nan
7.6472998 13.958407 4.2494421
20.245108 24.605978 5.0355453
13.665216 24.837139 5.4984665
25.705757 31.242046 3.5365622
14.360154 26.014669 3.6390178
nan nan nan
7.5676064 13.676719 0.81735677
8.5230007 10.342191 -0.7005167
7.5973215 13.719158 -0.27313015
2.9615753 3.59182 -0.56649536
3.5745871 6.449965 -0.64083892
1.8373888 2.2263794 -0.55380243
1.7550948 3.1633563 -0.56684071
1.3372558 1.6189052 -0.55250502
1.1953532 2.1567214 -0.56082857
nan nan nan
7.6948094 13.929513 4.2487955
20.408081 24.628323 5.054688
13.763733 24.810751 5.503233
25.712948 31.029402 3.5226173
14.477414 26.012087 3.6457109
nan nan nan
7.6274581 13.672026 0.81866515
8.5797815 10.337349 -0.70221764
7.6390738 13.681641 -0.272912
2.9709232 3.5776436 -0.56588691
3.5897992 6.4243994 -0.63953418
1.8435789 2.2180657 -0.55332577
1.7661264 3.1572106 -0.56684071
1.3428987 1.6142274 -0.55250502
1.2005055 2.1482782 -0.55970466
nan nan nan
7.6658669 13.763294 4.2061458
20.549303 24.623281 5.0683603
13.81672 24.702574 5.4898877
25.710989 30.807528 3.5075829
14.588764 25.998186 3.6508832
12.359241 14.800157 0.33595881
7.6849222 13.662727 0.81971186
8.64464 10.341812 -0.7045728
7.7431612 13.755106 -0.274919
2.9881713 3.5729597 -0.56679958
3.6085391 6.4053173 -0.6388818
1.8528869 2.2134979 -0.55380243
1.7771363 3.1510265 -0.56684071
1.3516308 1.6132296 -0.55379736
1.2115725 2.1504483 -0.56139052
nan nan nan
7.6807709 13.677482 4.1880522
20.706633 24.636463 5.0859404
nan nan nan
25.699785 30.576517 3.4914589
14.711185 26.00326 3.6587932
12.359337 14.695712 0.33456263
nan nan nan
8.7015915 10.3364 -0.70627373
7.851552 13.834533 -0.27705693
2.9974263 3.5587125 -0.56619108
3.6210468 6.375351 -0.63714218
1.8606021 2.2070165 -0.55380243
1.7893424 3.1469522 -0.56723136
1.3556944 1.6066573 -0.55315113
1.2178724 2.1440856 -0.56082857
nan nan nan
7.7237101 13.642179 4.1854672
20.83877 24.618685 5.0972691
nan nan nan
25.713032 30.376377 3.4788215
14.826445 25.994864 3.6648781
12.362087 14.595263 0.33325368
nan nan nan
8.7602262 10.33262 -0.70810544
7.8550434 13.723212 -0.27539897
3.0034065 3.5406618 -0.56497419
3.6332598 6.3425798 -0.63518506
1.8667051 2.1986384 -0.55332577
1.7990911 3.1385431 -0.56684071
1.3600082 1.599839 -0.55250502
1.2233088 2.1353755 -0.55970466
nan nan nan
7.8095727 13.682265 4.2061458
20.99667 24.630354 5.1148486
14.243006 24.850393 5.5556579
25.702984 30.139812 3.4624798
14.948009 25.996735 3.6724842
12.352213 14.475706 0.33155206
nan nan nan
8.8256073 10.332709 -0.71032971
7.9004006 13.691379 -0.27531171
3.0099123 3.5220866 -0.56375718
3.6553774 6.3298588 -0.63518506
1.8775607 2.1958377 -0.55427903
1.8100357 3.1322439 -0.56684071
1.3655844 1.595082 -0.55250502
1.2307552 2.1310923 -0.55970466
nan nan nan
nan nan nan
21.152769 24.630032 5.1308656
14.388014 24.89152 5.5766282
25.700933 29.925215 3.4480991
15.068521 25.995928 3.679786
12.352159 14.373736 0.33019951
nan nan nan
8.8795338 10.322657 -0.71176898
7.9544263 13.674522 -0.27552983
3.0238078 3.5134389 -0.5640614
3.6674376 6.2998352 -0.63344544
1.8804063 2.1836946 -0.55284917
1.8159971 3.1173658 -0.56527805
1.3648293 1.5829951 -0.5499202
1.2369648 2.1246758 -0.55914271
nan nan nan
nan nan nan
21.276323 24.608315 5.1410222
14.485297 24.869122 5.5823474
25.697701 29.711004 3.4337184
15.185456 25.988167 3.6861749
12.340875 14.26465 0.32862881
nan nan nan
8.9480429 10.332784 -0.71451664
8.0021105 13.646672 -0.27552983
3.0338161 3.5015175 -0.56375718
3.682014 6.2768941 -0.63235819
1.8896264 2.1789703 -0.55332577
1.8281156 3.1131387 -0.5656687
1.3766868 1.5855097 -0.55250502
1.2440039 2.1205623 -0.55914271
nan nan nan
nan nan nan
21.482092 24.6717 5.1699309
14.619224 24.898834 5.6004577
25.684868 29.49791 3.4189022
15.307554 25.988457 3.6937809
12.341326 14.16495 0.32731986
nan nan nan
9.0021086 10.32218 -0.71595585
8.0028391 13.544728 -0.27400276
3.0492847 3.4946442 -0.56436568
3.7013695 6.2597141 -0.63192326
1.8956052 2.1705136 -0.55284917
1.8427367 3.1131179 -0.56684071
1.383528 1.5827523 -0.55315113
1.2513984 2.1162069 -0.55914271
12.202874 13.917608 4.2618475
nan nan nan
21.595758 24.628122 5.1765718
14.749785 24.921579 5.6171389
25.682583 29.288235 3.4049568
15.428574 25.986078 3.7010827
12.33299 14.056029 0.32579279
nan nan nan
9.0644503 10.320704 -0.71804929
8.0539055 13.523154 -0.27413365
3.0549102 3.4765258 -0.56314874
3.7130075 6.2296348 -0.63018364
1.9096582 2.1712503 -0.55475557
1.8472798 3.0960562 -0.56488746
1.3842521 1.5724796 -0.55121255
1.2562909 2.107636 -0.5580188
12.248158 13.871277 4.2607236
nan nan nan
21.763327 24.64513 5.1961045
14.868114 24.922636 5.6290536
25.674206 29.073336 3.3903582
15.549762 25.983171 3.7083845
12.333973 13.958576 0.32452747
nan nan nan
9.1252346 10.317047 -0.72001189
8.1059885 13.49783 -0.27422091
3.0686719 3.4676986 -0.56345302
3.7294073 6.2053065 -0.62909639
1.9139689 2.1608992 -0.55380243
1.8618854 3.0959423 -0.56605941
1.3948183 1.5728116 -0.55315113
1.2665094 2.107198 -0.55914271
nan nan nan
14.908185 24.900717 7.7563944
21.886963 24.611446 5.2050896
14.996741 24.939997 5.6447811
25.679607 28.865541 3.3770671
15.677526 25.99036 3.7172077
12.326875 13.847935 0.3230004
nan nan nan
9.1928864 10.31708 -0.72236699
8.1879864 13.5272 -0.27539897
3.0747533 3.4490216 -0.56223601
3.7420218 6.1773338 -0.62757415
1.9247696 2.1578655 -0.55475557
1.8701261 3.0851974 -0.56527805
1.3970795 1.5643338 -0.55185878
1.268824 2.0944207 -0.5568949
nan nan nan
15.024304 24.88726 7.7693181
22.047876 24.610144 5.2218881
15.082962 24.876467 5.6428747
25.670527 28.653311 3.3626866
15.773307 25.943956 3.7184243
12.338428 13.763879 0.3220405
8.3516331 13.70033 0.83907616
9.2555256 10.314654 -0.72446042
8.2702875 13.55616 -0.276577
3.0867736 3.4382677 -0.56223601
3.7570796 6.1536016 -0.6264869
1.9257257 2.1438353 -0.55284917
1.8808842 3.0786507 -0.56527805
1.4057646 1.5630357 -0.55315113
1.2786582 2.0941415 -0.5580188
nan nan nan
15.145646 24.901272 7.789351
22.178986 24.591906 5.2336078
15.173047 24.838881 5.6457343
25.670282 28.452581 3.349613
15.795075 25.776592 3.7022996
12.340457 13.674643 0.3209061
8.4335861 13.732137 0.84273964
9.3265028 10.324657 -0.72733891
8.3856087 13.637953 -0.27884582
3.0948296 3.4243321 -0.56162751
3.7709479 6.1304984 -0.62539965
1.9348449 2.1389191 -0.55332577
1.8929112 3.0741708 -0.5656687
1.4079664 1.5545423 -0.55185878
1.2805058 2.0815809 -0.55577099
nan nan nan
15.266546 24.903851 7.8067985
22.33276 24.589273 5.2496243
15.286672 24.829657 5.6557426
25.660675 28.253004 3.3361039
15.853672 25.670626 3.694998
12.367938 13.609287 0.32038254
8.4814682 13.702615 0.84273964
9.3876886 10.319738 -0.72930151
8.4634314 13.657475 -0.27984932
3.1084347 3.4153428 -0.56193173
3.7855237 6.103931 -0.6240949
1.9472609 2.1375914 -0.55475557
1.9036307 3.0675445 -0.5656687
1.4133842 1.5496181 -0.55185878
1.2945269 2.0872366 -0.55858076
nan nan nan
15.376226 24.887394 7.8184299
22.481789 24.580406 5.2644696
15.413351 24.840796 5.670517
25.661499 28.046684 3.3228128
15.916965 25.572994 3.6889133
12.41436 13.560179 0.32029527
8.5580568 13.713804 0.84535652
9.4608765 10.323908 -0.73204911
8.5322285 13.661777 -0.28054741
3.1142211 3.3966138 -0.56071484
3.7975769 6.075891 -0.62257272
1.9513904 2.1271667 -0.55380243
1.9104067 3.0545955 -0.56449676
1.4204201 1.546452 -0.55250502
1.2979431 2.0765009 -0.5568949
nan nan nan
15.500532 24.884172 7.8352313
22.648703 24.581369 5.2824397
15.539427 24.840319 5.6833854
25.656296 27.845219 3.3095214
nan nan nan
12.463313 13.518599 0.3203389
8.6311169 13.724009 0.8478424
9.5273361 10.323841 -0.73440427
8.6277771 13.708081 -0.28211811
3.121006 3.3802552 -0.55980206
3.8134584 6.0541658 -0.62170291
1.9575068 2.1181989 -0.55332577
1.9242182 3.0517535 -0.56527805
1.4241681 1.5397131 -0.55185878
1.3038889 2.0698938 -0.55633295
12.852552 13.85318 4.3511982
15.618107 24.879007 7.85074
22.830109 24.605335 5.3047071
15.656135 24.833677 5.6943469
25.660162 27.655085 3.2975376
nan nan nan
12.527434 13.493327 0.32077521
8.7070246 13.738089 0.85059017
9.5905132 10.319778 -0.7364977
8.7357969 13.772885 -0.28408155
3.132786 3.3693399 -0.55980206
3.8265676 6.0281959 -0.62039816
1.9581965 2.1041713 -0.55141944
1.9335375 3.0429327 -0.56488746
1.4328293 1.5382637 -0.55315113
1.3111062 2.0653298 -0.55633295
12.993973 13.907904 4.3826671
15.74229 24.883532 7.8694801
23.013643 24.630135 5.3273649
15.774302 24.828594 5.7057848
25.649416 27.450708 3.2838104
nan nan nan
12.584703 13.460472 0.32103702
8.78582 13.756013 0.85359943
9.6606007 10.32269 -0.73911452
8.9103079 13.940321 -0.28818282
3.1411347 3.3547628 -0.55919361
3.8422239 6.0064068 -0.61952835
1.9685215 2.1012459 -0.55237263
1.9436176 3.036504 -0.56488746
1.4348825 1.5297331 -0.55185878
1.3209256 2.0648499 -0.55745685
13.006639 13.829251 4.3714285
15.855864 24.880074 7.8849888
23.14595 24.607639 5.3390846
15.892262 24.831966 5.7186532
25.642675 27.252188 3.2707372
nan nan nan
12.646403 13.436866 0.32147333
8.8597431 13.770901 0.85634702
9.71875 10.316035 -0.74094623
8.9102068 13.833467 -0.28661212
3.1522424 3.3443277 -0.55919361
3.8634684 5.9957271 -0.61974585
1.9775293 2.0961456 -0.55284917
1.9528695 3.0276241 -0.56449676
1.4402136 1.5247152 -0.55185878
1.3277655 2.0604582 -0.55745685
nan nan nan
15.973927 24.87335 7.9004979
23.292841 24.591228 5.3531485
16.008101 24.82172 5.7291384
25.640417 27.069368 3.258971
nan nan nan
12.725904 13.427106 0.32230228
8.9444132 13.796463 0.85987973
9.7942257 10.3237 -0.74395561
8.9475584 13.785504 -0.28626308
3.1621881 3.3315051 -0.55888933
3.8786409 5.9710789 -0.61865854
1.9814513 2.0856738 -0.55189604
1.9647688 3.0228612 -0.56488746
1.445527 1.5196785 -0.55185878
1.3339853 2.0535324 -0.5568949
nan nan nan
16.100008 24.878273 7.9198842
23.436485 24.570518 5.3664303
16.132082 24.823313 5.7424831
25.636295 26.867104 3.2458978
16.938097 25.984552 3.798744
12.802652 13.409297 0.3230004
9.0167618 13.797029 0.86197317
9.8561506 10.312998 -0.74578738
9.025713 13.80022 -0.28722298
3.1692305 3.3145144 -0.55797666
3.8926475 5.9470801 -0.61757129
1.9887196 2.0787446 -0.55189604
1.9739584 3.013917 -0.56449676
1.4508229 1.5146234 -0.55185878
1.339815 2.0468225 -0.55633295
nan nan nan
16.214828 24.855509 7.9315157
23.594824 24.555674 5.3820572
16.25119 24.807135 5.7524915
25.638466 26.682281 3.2343497
17.075453 25.986591 3.8081753
12.884033 13.40056 0.32387301
9.1280022 13.861402 0.86799175
9.9267187 10.314503 -0.74840415
9.1027021 13.812468 -0.28813922
3.1842246 3.3070049 -0.55858511
3.906533 5.9230561 -0.61648399
1.9997336 2.0749736 -0.55284917
1.9809182 3.0004745 -0.56332481
1.4561012 1.5095499 -0.55185878
1.3429391 2.0360253 -0.55464709
13.820855 14.2847 4.5771027
16.297512 24.7927 7.9295774
23.759386 24.554787 5.4000268
16.329575 24.737965 5.7496319
25.624065 26.481661 3.2208405
17.211256 25.995113 3.8182154
12.967248 13.393213 0.32478926
9.1404591 13.775359 0.86458999
9.98699 10.304885 -0.75023592
9.1702108 13.809767 -0.28875005
3.1922927 3.2923083 -0.55797666
3.9216759 5.901083 -0.61561418
2.010385 2.0715005 -0.55380243
1.9927447 2.995599 -0.56371546
1.4630457 1.5061888 -0.55250502
1.3554163 2.0394506 -0.5568949
13.895349 14.26671 4.5860944
16.467613 24.871435 7.9722266
23.940619 24.578451 5.4226847
16.501175 24.818573 5.7810869
25.612684 26.294857 3.2084208
17.337282 25.997768 3.8270383
13.051722 13.391307 0.32579279
9.2332344 13.815558 0.86903852
10.054236 10.305659 -0.75272185
9.2253075 13.788061 -0.28896818
3.1997249 3.2781541 -0.55736816
3.938098 5.8811474 -0.6149618
2.0103786 2.0578051 -0.55189604
2.0012956 2.9869213 -0.56332481
1.4649136 1.4976227 -0.55121255
1.3625271 2.0347068 -0.5568949
nan nan nan
16.591848 24.870056 7.9903202
24.12483 24.595207 5.444952
16.630043 24.824038 5.7958617
25.62516 26.115484 3.1979623
17.458364 25.982409 3.8337314
13.135743 13.379049 0.32666537
nan nan nan
10.123445 10.300786 -0.755077
nan nan nan
3.2099776 3.2646356 -0.55706394
3.9516447 5.8570375 -0.61387455
2.0209942 2.0542717 -0.55284917
2.0117097 2.9799173 -0.56332481
1.4786142 1.5010949 -0.5544436
1.3669038 2.0258944 -0.55577099
nan nan nan
16.724659 24.871212 8.0103531
24.29813 24.590929 5.4637036
16.762108 24.82394 5.8101592
25.623383 25.931988 3.1864138
17.591042 25.973726 3.8419461
13.217517 13.368663 0.32753801
nan nan nan
10.194468 10.300871 -0.75769377
nan nan nan
3.221354 3.2534111 -0.55706394
3.9706666 5.8411474 -0.61365706
2.0233238 2.0416245 -0.55141944
2.0240047 2.9745672 -0.56371546
1.4804403 1.4924984 -0.55315113
1.3807958 2.0311966 -0.55858076
nan nan nan
16.850649 24.870668 8.0290928
24.469162 24.591726 5.4828453
16.867977 24.79369 5.8168316
nan nan nan
17.720753 25.969561 3.8504648
13.317016 13.375579 0.32884693
25.893791 37.879768 2.4028745
10.265613 10.300585 -0.76031053
nan nan nan
3.230938 3.2403901 -0.55675966
3.9840024 5.8169732 -0.61256981
2.0269685 2.0310776 -0.55046624
2.0274074 2.9572918 -0.56176221
1.4788078 1.4804931 -0.55056632
1.3865047 2.0243518 -0.5580188
nan nan nan
nan nan nan
24.633514 24.584654 5.5004253
16.996038 24.795391 5.8311296
nan nan nan
17.837687 25.955648 3.8571582
13.414952 13.380198 0.33011225
25.894186 37.597919 2.3907065
10.342187 10.305213 -0.76331991
nan nan nan
3.2422295 3.2290921 -0.55675966
4.004283 5.8030314 -0.61256981
2.0336928 2.0243447 -0.55046624
2.0372028 2.9505527 -0.56176221
1.4908236 1.4821267 -0.55315113
1.3921831 2.0174923 -0.55745685
nan nan nan
nan nan nan
nan nan nan
17.122774 24.80353 5.8463802
nan nan nan
17.970545 25.954433 3.8662851
nan nan nan
25.943321 37.403111 2.3837719
10.404696 10.298959 -0.76541334
nan nan nan
3.2529199 3.2183228 -0.55675966
4.0192447 5.7835822 -0.61191744
2.0372534 2.0137854 -0.54951304
2.0474896 2.9434235 -0.56176221
1.4942681 1.4752187 -0.55250502
1.3974792 2.0108616 -0.5568949
11.213832 11.041735 3.6223457
10.684011 15.421513 5.0106711
nan nan nan
nan nan nan
nan nan nan
18.088003 25.93022 3.8720658
nan nan nan
25.937889 37.117901 2.3713419
10.470856 10.292324 -0.76763761
nan nan nan
3.2535093 3.1965187 -0.55493426
4.0275688 5.7504439 -0.60996038
2.0425181 2.0049436 -0.54903644
2.0619955 2.9423304 -0.56293416
1.4976825 1.4683046 -0.55185878
1.3978711 1.9957365 -0.55408514
11.243598 10.99401 3.6195357
10.752976 15.405912 5.0177794
11.237906 10.98843 2.4810512
nan nan nan
11.207871 10.955227 1.3681272
nan nan nan
11.209805 10.94946 0.272912
25.928587 36.81641 2.3581274
10.546036 10.290486 -0.77038521
nan nan nan
3.2634261 3.1828408 -0.55462998
4.0476165 5.7363501 -0.60996038
2.0565381 2.0046492 -0.55094284
2.0679886 2.9290578 -0.56176221
1.4976028 1.4580185 -0.5499202
1.4062296 1.9928379 -0.55464709
nan nan nan
nan nan nan
11.279878 10.948887 2.481442
10.735133 15.198791 3.6068647
11.247831 10.917772 1.3683451
nan nan nan
11.235397 10.898083 0.27260658
25.934166 36.552593 2.3470058
10.630308 10.300512 -0.77391791
nan nan nan
3.2691669 3.1662529 -0.55371726
4.0575242 5.7079706 -0.60843819
2.0582297 1.9923412 -0.54951304
2.0753429 2.917793 -0.56098086
1.4974697 1.4477509 -0.5479815
1.4145851 1.9899052 -0.55520904
nan nan nan
nan nan nan
nan nan nan
10.801117 15.18511 3.6121073
nan nan nan
17.605106 24.682709 3.7129483
11.293077 10.881575 0.27313015
25.825953 36.14542 2.3263333
10.677 10.277323 -0.7748338
12.518272 17.496897 -0.37492132
3.2868042 3.1622734 -0.55493426
4.0764298 5.6944838 -0.60843819
2.066942 1.9868439 -0.54998964
2.0869513 2.9125402 -0.56137156
1.5042578 1.444186 -0.54862773
1.4268333 1.9931372 -0.55745685
12.801058 12.256991 4.080337
8.1200905 11.375949 3.7305393
nan nan nan
10.852628 15.145318 3.6116304
nan nan nan
17.72735 24.67149 3.7205544
nan nan nan
25.820717 35.872669 2.3145576
10.747103 10.272762 -0.77731979
12.469687 17.300985 -0.37164897
3.2960277 3.1490674 -0.55462998
4.0899954 5.6694012 -0.60735089
2.0774176 1.9830036 -0.55094284
2.0956624 2.9032335 -0.56098086
1.5040414 1.4339318 -0.54668915
1.4312857 1.9839375 -0.55633295
12.691927 12.06789 4.0320091
8.0315065 11.169065 3.6717348
25.927761 24.650183 5.6543431
10.965738 15.190933 3.6316473
18.093649 17.196857 2.1808546
17.858456 24.671778 3.7299857
nan nan nan
25.828909 35.608025 2.3035669
10.811851 10.259076 -0.77928233
12.524131 17.249258 -0.37147444
3.3021441 3.131845 -0.55371726
4.1053715 5.6490426 -0.60669851
2.084327 1.9757401 -0.55094284
2.0985355 2.8859057 -0.55902761
1.5160586 1.4353079 -0.54927397
1.4367739 1.9769561 -0.55577099
nan nan nan
8.0610571 11.123904 3.6665649
26.09516 24.627863 5.6711416
11.034329 15.168505 3.635937
18.095604 17.078896 2.173882
17.986776 24.658287 3.737896
14.992661 14.140835 0.35912687
25.819027 35.334198 2.2916605
10.876672 10.248664 -0.78137577
12.491325 17.07831 -0.36872569
3.313056 3.1202996 -0.55371726
4.1235952 5.6326675 -0.60648108
2.089766 1.9664067 -0.55046624
2.1134698 2.884176 -0.56019956
1.5157764 1.4250494 -0.54733533
1.4451013 1.973897 -0.55633295
nan nan nan
8.237896 11.284953 3.7292471
26.263849 24.614292 5.6891112
11.065459 15.100197 3.628788
18.08242 16.947508 2.1651664
18.112402 24.649347 3.7461104
14.979896 14.030324 0.35764343
25.822348 35.080986 2.2810626
10.928788 10.225984 -0.78255332
nan nan nan
3.3184888 3.1036334 -0.55280459
4.1358476 5.6082125 -0.60539383
2.0894401 1.9524025 -0.54855984
2.1220605 2.8747921 -0.55980891
1.5278089 1.4263355 -0.5499202
1.4519826 1.9688406 -0.55633295
13.176352 12.263985 4.1443996
8.4216757 11.452685 3.7945135
26.443609 24.609936 5.7094254
nan nan nan
18.094065 16.840174 2.1595016
18.244215 24.656977 3.7564545
14.981187 13.933692 0.356509
25.818272 34.82016 2.2699411
11.019293 10.238749 -0.78647852
nan nan nan
3.3311214 3.0937185 -0.55310881
4.1539149 5.5917411 -0.60517639
2.1031024 1.9521366 -0.55046624
2.131582 2.8677394 -0.55980891
1.5310057 1.4193534 -0.54927397
1.4588462 1.9637603 -0.55633295
13.102463 12.114393 4.1084347
8.5414886 11.535352 3.8313472
26.635683 24.624357 5.7332559
nan nan nan
18.086891 16.716063 2.1516573
18.362791 24.636919 3.7631478
14.972226 13.833053 0.35520008
25.803671 34.560295 2.258558
11.044011 10.193686 -0.78582436
8.5846291 11.480268 -0.24961303
3.3377132 3.0792916 -0.55250031
4.1649823 5.5679593 -0.60408908
2.1080983 1.9431214 -0.54998964
2.1430569 2.8622601 -0.56019956
1.5395072 1.4172685 -0.55056632
1.4638947 1.9569584 -0.55577099
12.988542 11.925267 4.0595446
8.6004658 11.530638 3.8397479
26.810612 24.61305 5.752398
nan nan nan
18.089016 16.607153 2.1453385
18.496344 24.636177 3.7728834
15.003844 13.765499 0.35480741
25.79962 34.30439 2.2476983
11.114499 10.187119 -0.78831035
8.5855646 11.398308 -0.24847861
3.3466108 3.0659466 -0.55219609
4.1778736 5.542707 -0.60300183
2.1112454 1.9324393 -0.54903644
2.1515505 2.8527884 -0.55980891
1.5373094 1.4053746 -0.5479815
1.4710577 1.9515798 -0.55577099
13.062495 11.909394 4.0696597
nan nan nan
27.011332 24.624111 5.777009
nan nan nan
18.087172 16.483709 2.1379304
18.625626 24.628866 3.7817063
15.06898 13.723878 0.35515645
25.786469 34.026531 2.235661
11.133293 10.129515 -0.78700191
8.5679121 11.292583 -0.24682064
3.3541527 3.0503223 -0.55158758
4.1896715 5.5181675 -0.60191453
2.1161606 1.9234084 -0.54855984
2.1614954 2.8452606 -0.55980891
1.5439954 1.4016216 -0.54862773
1.477861 1.9464331 -0.55577099
13.060899 11.820577 4.0556111
nan nan nan
27.180136 24.596186 5.7938075
nan nan nan
18.087353 16.368673 2.1311758
18.756584 24.622927 3.7908337
15.159438 13.709753 0.35615996
25.786947 33.781509 2.2254555
11.161173 10.083897 -0.78647852
8.5116968 11.137454 -0.24407189
3.3574107 3.0319464 -0.55037063
4.2028618 5.4955916 -0.60104471
2.119216 1.9127238 -0.54760665
2.1714141 2.8376985 -0.55980891
1.5434928 1.3913776 -0.54668915
1.4846463 1.9412624 -0.55577099
12.931534 11.625756 4.0033493
nan nan nan
27.362556 24.596704 5.8152933
8.5945921 11.22964 2.7394631
18.08695 16.253836 2.1244214
nan nan nan
15.225273 13.677779 0.35663989
25.769526 33.527542 2.2143342
nan nan nan
8.5779552 11.143336 -0.24485725
3.3655987 3.01914 -0.55006641
4.2149892 5.4737267 -0.60017484
2.1313655 1.9102249 -0.54903644
2.1798012 2.8281436 -0.55941826
1.5537429 1.3908085 -0.54862773
1.4881103 1.9324627 -0.55464709
13.035645 11.63732 4.0230174
nan nan nan
27.566154 24.606277 5.8402953
8.6292458 11.193738 2.7380333
18.081295 16.140701 2.1174488
nan nan nan
15.287849 13.637861 0.35698897
25.754984 33.267601 2.2030818
nan nan nan
8.604147 11.100997 -0.24455184
3.3798244 3.010673 -0.55067492
4.2233953 5.4451976 -0.59865272
2.1325176 1.8978825 -0.54760665
2.1851251 2.8146605 -0.55824631
1.5547339 1.3824422 -0.54733533
1.4948467 1.9272565 -0.55464709
13.118119 11.628907 4.0359426
8.7693787 11.338655 3.8261776
27.755362 24.60162 5.8621721
8.6757889 11.173242 2.7404163
18.089067 16.034538 2.1117837
8.7495527 11.235917 1.7417755
15.372785 13.617558 0.35786158
25.758898 33.033764 2.1935306
nan nan nan
8.6459188 11.074837 -0.2446391
3.3847349 2.993927 -0.54976213
4.236249 5.4225678 -0.59778291
2.1483295 1.8985466 -0.54998964
2.196455 2.8089626 -0.5586369
1.5631738 1.3802003 -0.54862773
1.5030613 1.9239494 -0.55520904
13.186062 11.607186 4.0443721
8.8385754 11.346089 3.8391018
27.954144 24.604095 5.8860021
8.7117157 11.139024 2.7394631
18.086971 15.92029 2.1050291
8.7764721 11.189683 1.7393415
15.474659 13.611686 0.35912687
nan nan nan
nan nan nan
8.6984243 11.062279 -0.24503177
3.4044902 2.9902775 -0.55128336
4.2459188 5.395998 -0.59647816
2.1475611 1.8845661 -0.54808331
2.2016711 2.7954531 -0.55746496
1.5716168 1.3779163 -0.5499202
1.5112706 1.920608 -0.55577099
13.237504 11.570705 4.0477438
nan nan nan
28.132824 24.587614 5.9055347
8.7611704 11.122045 2.7427993
18.082422 15.804617 2.0980568
8.813941 11.157031 1.7390374
15.559732 13.590469 0.35999948
nan nan nan
nan nan nan
8.5663462 10.816246 -0.24023235
3.4074244 2.9718544 -0.55006641
4.2631831 5.3791914 -0.59626073
2.1615314 1.8835022 -0.54998964
2.2144799 2.7916241 -0.55824631
1.5745941 1.3708378 -0.54927397
1.5149467 1.911497 -0.55464709
nan nan nan
nan nan nan
28.334667 24.581415 5.9289737
nan nan nan
18.093197 15.697436 2.0926094
8.8852644 11.166985 1.7454264
15.673659 13.589016 0.36148295
8.8219881 11.063627 0.73976868
nan nan nan
8.5669718 10.735917 -0.23914158
3.4220476 2.9625926 -0.55067492
4.2735529 5.3518462 -0.59495598
2.1662359 1.8743411 -0.54951304
2.2226722 2.7819457 -0.55785561
1.5796077 1.3650573 -0.54927397
1.5234591 1.9078382 -0.55520904
nan nan nan
nan nan nan
28.530134 24.585642 5.9528036
nan nan nan
18.089382 15.583797 2.0858548
nan nan nan
15.758412 13.571216 0.36239919
8.8539419 11.02847 0.73937619
nan nan nan
8.6435251 10.754669 -0.24023235
3.4243245 2.9447596 -0.54945791
4.2912774 5.3376451 -0.59495598
2.1634526 1.8587778 -0.54713005
2.2370059 2.7799473 -0.55902761
1.5788605 1.3548222 -0.54733533
1.5297774 1.9027758 -0.55520904
13.211717 11.30634 4.0033493
nan nan nan
28.707722 24.564568 5.9719462
11.4858 14.273026 3.5511031
18.089867 15.48001 2.0799718
nan nan nan
15.866487 13.568107 0.3637954
8.9017992 11.009148 0.74016124
nan nan nan
8.6244202 10.654469 -0.23866163
3.4383581 2.9360099 -0.55006641
4.3014135 5.3102632 -0.59365124
2.1680596 1.8496231 -0.54665345
2.2435915 2.7682812 -0.55824631
1.5854197 1.3508673 -0.5479815
1.5336816 1.8933643 -0.55408514
13.271524 11.277503 4.009531
nan nan nan
28.913733 24.56653 5.9969478
11.566447 14.270985 3.5606349
18.091431 15.36685 2.073653
19.977629 24.584002 3.8796718
15.927543 13.519566 0.36405715
8.9704618 11.011298 0.74251634
nan nan nan
8.6299829 10.585543 -0.23778903
3.4415216 2.9169731 -0.5488494
4.3183508 5.2932849 -0.5934338
2.1707559 1.8388737 -0.54570031
2.251682 2.758518 -0.55785561
1.5882803 1.3437667 -0.54733533
1.5448903 1.8936707 -0.55577099
13.323942 11.238207 4.0129023
nan nan nan
29.133829 24.570227 6.0239034
11.711781 14.342573 3.5892305
18.101171 15.266679 2.0686414
20.126175 24.590937 3.8918414
16.047276 13.525094 0.36571518
nan nan nan
nan nan nan
8.7382307 10.64231 -0.23975241
3.4554813 2.9081364 -0.54945791
4.3257427 5.2647018 -0.59191161
2.1809199 1.8344421 -0.54665345
2.2597315 2.7487316 -0.55746496
1.5948118 1.3397661 -0.5479815
1.5499481 1.8863814 -0.55520904
13.454511 11.272173 4.0409999
nan nan nan
29.309797 24.552761 6.0434361
nan nan nan
18.093248 15.152238 2.0616691
20.293945 24.620113 3.9076622
16.174459 13.540793 0.36759129
nan nan nan
nan nan nan
8.7434807 10.573207 -0.2388798
3.4574881 2.8902986 -0.54824096
4.3400054 5.2464881 -0.59147668
2.1816559 1.8221024 -0.54522371
2.2708852 2.7427311 -0.55785561
1.5976229 1.3326459 -0.54733533
1.5577441 1.8831112 -0.55577099
13.505013 11.234485 4.0443721
nan nan nan
nan nan nan
nan nan nan
18.097441 15.053935 2.0564396
20.400366 24.573946 3.9116168
16.286985 13.538573 0.36907473
25.71763 30.925966 2.1061296
nan nan nan
8.8328505 10.609488 -0.24036326
3.4713762 2.8813803 -0.5488494
4.3423634 5.2121611 -0.58930212
2.1936731 1.8191719 -0.54665345
2.2757082 2.7290919 -0.55668366
1.6020333 1.3273406 -0.54733533
1.5611964 1.873913 -0.55464709
13.690658 11.308265 4.0882044
nan nan nan
nan nan nan
12.342795 14.801858 3.7360215
18.09803 14.947855 2.0505569
20.549675 24.578747 3.9237869
nan nan nan
25.706821 30.694357 2.0964475
nan nan nan
8.8762512 10.586253 -0.24053778
3.4680037 2.8582036 -0.54671973
4.3525333 5.187427 -0.58821487
2.2000098 1.8115035 -0.54665345
2.2836354 2.7192388 -0.55629301
1.6066567 1.3217404 -0.54733533
1.567728 1.8684521 -0.55464709
13.718742 11.251137 4.0848322
nan nan nan
nan nan nan
12.405434 14.771842 3.7393577
18.107727 14.849849 2.0457633
20.710453 24.596087 3.938086
nan nan nan
25.68988 30.457478 2.0863729
nan nan nan
8.9262791 10.567019 -0.24084319
3.4760387 2.8445098 -0.54641551
4.3683038 5.1676331 -0.58777994
2.2006168 1.7991567 -0.54522371
2.3026659 2.7225752 -0.5586369
1.6096185 1.3143171 -0.54668915
1.5729969 1.8608302 -0.55408514
13.742823 11.190879 4.080337
nan nan nan
nan nan nan
12.574164 14.867139 3.7746255
18.113745 14.744081 2.0403159
20.869995 24.61071 3.952081
18.175543 14.783822 0.40834266
25.705973 30.250858 2.0786533
nan nan nan
8.9501591 10.520561 -0.24049415
3.4787338 2.8254962 -0.54519856
4.3734102 5.1371732 -0.58604032
2.2106967 1.7945552 -0.54617691
2.3073595 2.7088752 -0.55746496
1.6217059 1.3147671 -0.54927397
1.585785 1.8627594 -0.55633295
13.753429 11.115936 4.0713453
11.051438 13.01962 4.560266
nan nan nan
12.663579 14.862056 3.7851107
18.120546 14.64476 2.0353045
21.026131 24.611416 3.9645548
18.151192 14.659045 0.40664104
25.77895 30.123005 2.0760365
nan nan nan
9.0372248 10.548117 -0.24184671
3.496304 2.8195634 -0.54641551
4.3848367 5.1143088 -0.58517051
2.2210832 1.7895172 -0.54713005
2.3172724 2.7004001 -0.55746496
1.62252 1.3060731 -0.5479815
1.5906956 1.8553604 -0.55577099
nan nan nan
11.103093 12.988307 4.562851
nan nan nan
12.694611 14.793547 3.7789152
18.124933 14.544013 2.0300751
21.176638 24.613119 3.9767244
18.155445 14.55807 0.4055939
25.763344 29.892876 2.0663543
nan nan nan
9.1098986 10.558153 -0.24280658
3.4964371 2.7995913 -0.54489434
4.3896513 5.0838823 -0.58343089
2.2196465 1.7756263 -0.54522371
2.3282967 2.6941655 -0.55785561
1.6270691 1.3004014 -0.5479815
1.5955738 1.8479499 -0.55520904
nan nan nan
11.108984 12.903706 4.5466962
nan nan nan
12.746172 14.749144 3.7789152
18.117151 14.434105 2.0235384
21.262423 24.539049 3.9767244
18.196371 14.486823 0.40537575
25.739904 29.655685 2.0561488
nan nan nan
9.1925888 10.579136 -0.24402827
3.512017 2.7919996 -0.54580706
4.4041047 5.0647678 -0.58299595
2.225831 1.7678674 -0.54522371
2.3279746 2.6748333 -0.55551171
1.625919 1.2902157 -0.54604292
1.5988247 1.8386863 -0.55408514
nan nan nan
11.085952 12.786368 4.518909
nan nan nan
12.873281 14.791586 3.8013148
18.114683 14.329064 2.0176554
21.424618 24.552565 3.9910235
18.148775 14.345723 0.40319419
25.74634 29.454741 2.0484293
nan nan nan
9.2426243 10.562036 -0.2443773
3.5178452 2.77665 -0.54519856
4.4168386 5.0437393 -0.58234358
2.2281322 1.7570504 -0.54427052
2.3421731 2.6722682 -0.55668366
1.636108 1.2890108 -0.5479815
1.6036316 1.8312584 -0.55352318
nan nan nan
11.155924 12.776707 4.5292482
nan nan nan
12.976585 14.805632 3.816566
18.121498 14.231908 2.012862
21.574066 24.550335 4.0028892
18.137779 14.234451 0.40184164
25.721998 29.220385 2.0383546
nan nan nan
9.3091726 10.563474 -0.24516267
3.5236082 2.7612939 -0.54459006
4.4294796 5.0226841 -0.58169127
2.234252 1.7492621 -0.54427052
2.3416965 2.6529558 -0.55433971
1.6386939 1.2818056 -0.54733533
1.6084065 1.8238195 -0.55296123
nan nan nan
nan nan nan
nan nan nan
nan nan nan
18.145533 14.148659 2.0100293
21.756643 24.58453 4.0208397
18.165667 14.154154 0.4013617
25.734421 29.029528 2.0312893
nan nan nan
9.3592596 10.545877 -0.24551173
3.5312665 2.7474546 -0.54428583
4.4370694 4.9960117 -0.58038652
2.2384057 1.7399476 -0.54379392
2.3509429 2.6447656 -0.55433971
1.6355231 1.2701596 -0.54475045
1.6115347 1.814545 -0.55183733
nan nan nan
nan nan nan
nan nan nan
nan nan nan
