# .PCD v0.7 - Point Cloud Data file format
VERSION 0.7
FIELDS x y z
SIZE 4 4 4
TYPE F F F
COUNT 1 1 1
WIDTH 1575
HEIGHT 1
VIEWPOINT 0 0 0 1 0 0 0
POINTS 1575
DATA ascii
3.2950916 -0.89752352 -0.53480697
1.8344729 -0.88547361 -0.53570366
2.2854085 -0.62142974 -0.53835046
nan nan nan
nan nan nan
4.9540343 -2.3991683 0.86530125
24.45418 -6.6579766 4.9151154
4.451694 -2.1556919 0.42967781
30.455654 -8.3364515 3.867198
4.2647381 -2.0669174 0.082113571
nan nan nan
4.2764673 -2.0753672 -0.24728738
10.078033 -2.7749803 -0.18185407
3.7163153 -1.8056495 -0.50230068
5.9085841 -1.6288835 -0.53211159
2.5031226 -1.2176552 -0.53378546
3.296701 -0.91032827 -0.53558832
1.8313707 -0.89187169 -0.53570366
2.2832253 -0.62940353 -0.53835046
nan nan nan
nan nan nan
4.9057012 -2.3969202 0.85826945
24.279379 -6.7015347 4.8846135
4.3904476 -2.1449597 0.42444846
30.112194 -8.3499222 3.8270383
4.2148409 -2.0609126 0.081284575
nan nan nan
4.237812 -2.0748999 -0.24545564
9.9189959 -2.7685442 -0.17914893
3.6877131 -1.8076783 -0.49925828
5.8956647 -1.6474929 -0.53145921
2.4968684 -1.2248667 -0.53330886
3.293664 -0.92125553 -0.53558832
1.8304131 -0.89932609 -0.53634989
2.2763193 -0.63606763 -0.53722656
nan nan nan
nan nan nan
4.8600769 -2.3946085 0.8516283
24.129385 -6.7463508 4.8588772
4.3404975 -2.1393359 0.42030856
29.638515 -8.3301659 3.7704496
4.1766028 -2.0593896 0.080673747
9.5622864 -2.6997607 0.518911
4.1950974 -2.071243 -0.2433622
9.7529125 -2.7589943 -0.17631292
3.6616826 -1.809992 -0.4965201
5.8925657 -1.667711 -0.53167665
2.4859812 -1.2303048 -0.53187907
3.2928047 -0.93341714 -0.53597891
1.8186115 -0.90141165 -0.53376508
2.2765429 -0.64427143 -0.53778851
nan nan nan
nan nan nan
4.7942066 -2.3829622 0.84147131
24.082077 -6.8238506 4.8541112
4.2910137 -2.1326411 0.41616869
29.418329 -8.3792219 3.7461104
4.1268749 -2.0527871 0.07984475
9.5552034 -2.733808 0.51904184
4.1476254 -2.0658228 -0.24100707
9.6115303 -2.7535191 -0.17391323
3.6264811 -1.8083539 -0.49256501
5.8795257 -1.6862154 -0.53102434
2.4860613 -1.2411704 -0.53283226
3.2800295 -0.9421913 -0.53441632
1.8199307 -0.90960085 -0.53505743
2.2742801 -0.65221417 -0.53778851
nan nan nan
nan nan nan
4.7483411 -2.3808539 0.83483016
23.961391 -6.8801193 4.8345709
4.2479286 -2.1297333 0.41268241
29.276842 -8.4495373 3.731811
4.0817113 -2.0481064 0.079103023
9.5432043 -2.7664516 0.518911
4.1024733 -2.0612183 -0.23878279
9.4458036 -2.7418325 -0.17107721
3.6068487 -1.8143047 -0.49073952
5.8759952 -1.7074218 -0.53124177
2.4860961 -1.2520517 -0.53378546
3.2814646 -0.95500869 -0.53519762
1.8081226 -0.91159099 -0.53247261
2.2790112 -0.66217428 -0.53947437
nan nan nan
nan nan nan
4.691534 -2.3728783 0.82623577
23.814686 -6.9280939 4.8097882
4.207139 -2.1276755 0.40941408
29.304333 -8.5683851 3.7391126
4.0366316 -2.0431364 0.078361295
nan nan nan
4.0640821 -2.0597122 -0.23695102
9.3066607 -2.7367675 -0.16872112
3.5717335 -1.8122742 -0.48678443
5.8699994 -1.7279224 -0.53124177
2.4882722 -1.2640611 -0.5352152
3.2804804 -0.96715248 -0.53558832
1.8070813 -0.91899377 -0.53311884
2.267333 -0.66739231 -0.53722656
nan nan nan
22.284472 -6.5212741 6.2035646
4.6172471 -2.355552 0.81451613
23.663233 -6.9737411 4.7840519
4.1531072 -2.1185639 0.40483844
29.583563 -8.7621899 3.7786641
3.9960883 -2.0401514 0.077706836
nan nan nan
4.023531 -2.0568266 -0.23498842
9.1820459 -2.7350399 -0.16662684
3.5543439 -1.8190731 -0.48526323
5.8663192 -1.7491115 -0.53145921
2.4838445 -1.2727392 -0.5352152
3.2723501 -0.97719079 -0.53480697
1.7974192 -0.92198324 -0.53118026
2.2743328 -0.67806846 -0.53947437
14.030794 -7.224185 3.6324608
22.231468 -6.5901051 6.1951637
4.5585065 -2.3456502 0.80553102
23.492935 -7.0128031 4.7545033
4.1054645 -2.1132386 0.40091643
29.506088 -8.8570118 3.7728834
3.9508166 -2.0353079 0.076965109
nan nan nan
3.9893456 -2.0578144 -0.23341836
9.0518169 -2.7341945 -0.16444528
3.5363126 -1.8270072 -0.48374203
5.8547912 -1.7701857 -0.53102434
2.4767604 -1.2811379 -0.5347386
3.2780311 -0.9925983 -0.53636956
1.8065635 -0.93586844 -0.53505743
2.2622607 -0.68438947 -0.53722656
13.980069 -7.2692089 3.6268413
22.172453 -6.6695614 6.1861167
4.4877148 -2.3320265 0.79459268
23.462248 -7.1063423 4.7540269
4.0571809 -2.1090093 0.39699441
29.285135 -8.9190226 3.7491527
3.9071429 -2.0326774 0.076267011
9.4204407 -2.8812706 0.51446241
3.9434204 -2.0541885 -0.23119408
8.9618902 -2.7463784 -0.16300547
3.5377479 -1.8457836 -0.48495898
5.8357301 -1.7900313 -0.52993703
2.4694233 -1.2899323 -0.53426206
3.2716587 -1.0050272 -0.53597891
1.8006532 -0.94199133 -0.53441119
2.2594953 -0.69346523 -0.53722656
13.916269 -7.3071461 3.6178498
22.244833 -6.7888055 6.2139034
4.4280367 -2.3236134 0.78560758
23.304501 -7.1608462 4.7278137
4.0159802 -2.1072011 0.39372608
29.191399 -9.0131111 3.7415466
3.8727586 -2.0337079 0.075743437
9.3735323 -2.9063475 0.51249981
3.902365 -2.0518725 -0.22923149
8.7368813 -2.7126074 -0.15907867
3.5221782 -1.8541099 -0.48374203
5.8386459 -1.8143575 -0.53080684
2.4668489 -1.3001201 -0.5347386
3.2608769 -1.0148199 -0.53480697
1.797354 -0.94827104 -0.53441119
2.2547331 -0.70062989 -0.53666461
13.931579 -7.3773437 3.6285272
22.467907 -6.9426546 6.2830477
4.3762569 -2.3159394 0.77779454
nan nan nan
3.9711864 -2.1013887 0.39002195
29.138439 -9.1082926 3.7388086
3.8303006 -2.028481 0.07504534
nan nan nan
3.8731275 -2.0537765 -0.22792308
8.6319609 -2.7131553 -0.15733343
3.5113022 -1.8640643 -0.48313355
5.8203955 -1.8309989 -0.52971959
2.4557967 -1.3052633 -0.53330886
3.2549584 -1.0254574 -0.53441632
1.8004261 -0.95794851 -0.53634989
2.2476232 -0.70704317 -0.5355407
13.871364 -7.4075642 3.6195357
22.514994 -7.0433784 6.3030801
4.3267641 -2.3090959 0.77037203
nan nan nan
3.9286799 -2.0964632 0.38653573
29.104103 -9.2092018 3.7385044
3.7879264 -2.0229826 0.074347243
nan nan nan
3.83512 -2.0507886 -0.22609131
8.5080853 -2.7069516 -0.15523914
3.4938388 -1.8704486 -0.48161235
5.8163424 -1.8520589 -0.52993703
2.4577122 -1.3173101 -0.5347386
3.25842 -1.0390544 -0.53558832
1.7885633 -0.95965201 -0.53376508
2.2451417 -0.71488452 -0.5355407
13.903328 -7.4871316 3.6347086
22.439613 -7.1058979 6.2888637
4.2817206 -2.3042774 0.76373088
22.208708 -7.0797095 4.5200186
3.895026 -2.0959909 0.38392103
29.126137 -9.3281374 3.745502
3.7522392 -2.0207725 0.073780045
nan nan nan
3.7993777 -2.0487463 -0.2243904
8.4462309 -2.7198048 -0.15427928
3.4807394 -1.8790933 -0.4806996
5.8027287 -1.8700639 -0.52928466
2.4466245 -1.322376 -0.53330886
3.2524223 -1.0496668 -0.53519762
1.7915714 -0.96934307 -0.53570366
2.2472725 -0.72420245 -0.53666461
13.808608 -7.4984102 3.6167262
22.258276 -7.1340904 6.2449217
4.2606316 -2.3121376 0.76138699
22.046051 -7.1127577 4.4919
3.8548589 -2.0917432 0.3806527
29.043106 -9.4078569 3.7388086
3.7188091 -2.0195312 0.07325647
nan nan nan
3.7571185 -2.0428994 -0.22229697
8.3796368 -2.7307129 -0.15323211
3.4741585 -1.8912319 -0.4806996
5.8009024 -1.8918486 -0.52971959
2.4465344 -1.3328332 -0.53426206
3.2559688 -1.0627356 -0.53636956
1.7797012 -0.97095639 -0.53311884
2.2400961 -0.73054099 -0.5355407
13.702471 -7.4997058 3.595372
22.138002 -7.1766024 6.2177811
4.218286 -2.3072808 0.75513655
22.076006 -7.2033243 4.5028615
3.8147695 -2.0872409 0.37738436
28.993582 -9.5037708 3.7366791
3.6857867 -2.0174387 0.072732903
nan nan nan
3.7328131 -2.0457408 -0.22125025
8.3534346 -2.7544758 -0.1529267
3.4613435 -1.8991584 -0.47978687
5.7898655 -1.9095181 -0.52928466
2.4418671 -1.341365 -0.53426206
3.242856 -1.0710095 -0.53480697
1.7805307 -0.97949481 -0.53441119
2.2399762 -0.73872387 -0.53610265
13.682606 -7.551023 3.5970581
21.988892 -7.2132106 6.1828861
4.203721 -2.3184111 0.75396454
22.1859 -7.3249397 4.5305037
3.7794828 -2.0842328 0.37455183
28.971329 -9.6029863 3.737896
3.6371517 -2.0073252 0.071903907
nan nan nan
3.6885111 -2.0382144 -0.21902597
8.3371391 -2.7797935 -0.15279582
3.4546933 -1.911229 -0.47978687
5.7737122 -1.9265708 -0.52841485
2.4374056 -1.3494551 -0.53426206
3.2392867 -1.0817573 -0.53480697
1.7772728 -0.98539382 -0.53441119
2.2350717 -0.74577188 -0.5355407
13.695806 -7.617672 3.6071727
22.042793 -7.3119259 6.2048569
4.2456393 -2.3599505 0.76294959
22.026463 -7.3534231 4.5028615
3.7417183 -2.0804558 0.37150136
28.892929 -9.6890726 3.7321153
3.6064522 -2.0059988 0.071423963
nan nan nan
3.6555643 -2.0358462 -0.21745588
8.2871132 -2.7953179 -0.15205407
3.4483361 -1.9226748 -0.47978687
5.7696524 -1.9465008 -0.52863228
2.4348223 -1.3591527 -0.5347386
3.235491 -1.093058 -0.53480697
1.7696086 -0.98923099 -0.53311884
2.2348957 -0.75395364 -0.53610265
13.726497 -7.6976113 3.6223457
21.950731 -7.3665552 6.1861167
4.2632194 -2.3892529 0.76763749
22.114601 -7.4687209 4.5262146
3.71525 -2.0818865 0.36954033
nan nan nan
3.5710931 -2.0026681 0.070856765
nan nan nan
3.6223199 -2.0339146 -0.21588582
8.2706995 -2.8203669 -0.15192319
3.4394414 -1.9334829 -0.47948265
5.7533917 -1.9634181 -0.52776247
2.4281638 -1.3660147 -0.53426206
3.238862 -1.1061661 -0.53597891
1.7705243 -0.99746841 -0.53441119
2.2322505 -0.76175028 -0.53610265
13.641518 -7.7095208 3.606611
nan nan nan
4.2703195 -2.4118834 0.77037203
21.975901 -7.5031805 4.5028615
3.6797786 -2.0789046 0.3667078
nan nan nan
3.5361502 -1.9984981 0.07028956
nan nan nan
3.6025219 -2.0385325 -0.21510078
8.2277164 -2.837827 -0.15131237
3.4308524 -1.9436537 -0.47917843
5.7492042 -1.9832968 -0.52797991
2.4148455 -1.3696336 -0.53235567
3.2256408 -1.1142526 -0.53441632
1.7607353 -1.0000585 -0.53247261
2.2343209 -0.77072829 -0.53722656
13.656852 -7.7812157 3.6178498
nan nan nan
4.2575841 -2.4243293 0.76959074
21.819662 -7.5350113 4.4761724
3.6447356 -2.0750642 0.36387521
nan nan nan
3.4987552 -1.9934909 0.069678724
nan nan nan
3.5737045 -2.0387144 -0.21379238
nan nan nan
3.4283552 -1.9580812 -0.47978687
5.7375422 -2.0017161 -0.52754503
2.4164386 -1.3817134 -0.53378546
3.2240639 -1.1263167 -0.53480697
1.7615991 -1.0082953 -0.53376508
2.2293155 -0.77772492 -0.53666461
13.52611 -7.7693739 3.5903144
nan nan nan
4.210557 -2.4170334 0.762559
21.807131 -7.6159821 4.4790316
3.6093976 -2.071645 0.36104268
nan nan nan
3.4701061 -1.9932315 0.069242418
nan nan nan
3.5470939 -2.0399656 -0.21261482
nan nan nan
3.4214993 -1.9700365 -0.47978687
5.7211232 -2.0184243 -0.52667522
2.4052248 -1.3864588 -0.53235567
3.2177835 -1.1367445 -0.53441632
1.7538873 -1.0120201 -0.53247261
2.2242882 -0.78469598 -0.53610265
13.53685 -7.8385186 3.6004295
nan nan nan
4.2298717 -2.4478056 0.76763749
21.80587 -7.7010422 4.4842744
3.576283 -2.0692523 0.35842797
nan nan nan
3.4825902 -2.0166144 0.069635101
nan nan nan
3.5399516 -2.052335 -0.21261482
nan nan nan
3.4167473 -1.9832144 -0.48009112
5.7116957 -2.0375473 -0.52645773
2.402735 -1.395661 -0.53283226
3.2186494 -1.1490631 -0.53519762
1.7524307 -1.0193526 -0.53311884
2.2284234 -0.79489726 -0.53778851
nan nan nan
nan nan nan
4.23666 -2.4705317 0.77037203
21.97669 -7.843389 4.5247846
3.5367775 -2.0628867 0.35515964
nan nan nan
3.4629335 -2.0205877 0.06937331
nan nan nan
3.4339919 -2.0060868 -0.20659618
6.2450624 -2.2519498 -0.11527314
3.405869 -1.9920262 -0.47948265
5.6978774 -2.0539484 -0.52580541
2.3957317 -1.4027984 -0.53235567
3.2122951 -1.159456 -0.53480697
1.7530259 -1.0279105 -0.53441119
2.2166023 -0.79899633 -0.5355407
nan nan nan
nan nan nan
4.2365232 -2.490314 0.77193469
22.009205 -7.9417 4.5371761
3.5191848 -2.0682895 0.35407022
nan nan nan
3.4989388 -2.0580289 0.070245937
6.2307868 -2.2677279 0.34567899
3.4054613 -2.0053828 -0.20528778
6.2187667 -2.2658141 -0.1149241
3.4053059 -2.0076869 -0.48039538
5.6906729 -2.0738254 -0.52580541
2.3971584 -1.4148991 -0.53378546
3.2059073 -1.1698186 -0.53441632
1.7475296 -1.0324878 -0.53376508
2.2183805 -0.80838805 -0.53666461
nan nan nan
12.362351 -4.48493 3.5095372
4.2256808 -2.5038276 0.77154404
21.796892 -7.9512329 4.4990487
3.4755278 -2.0589645 0.35036609
nan nan nan
3.4981818 -2.0740571 0.070376821
6.1244016 -2.2533259 0.34018371
3.4048791 -2.0210838 -0.2056803
nan nan nan
3.4004095 -2.0208299 -0.4806996
5.6810617 -2.0928175 -0.52558798
2.3900964 -1.4220017 -0.53330886
3.2018044 -1.1810021 -0.53441632
1.7542838 -1.0447698 -0.53699601
2.2178328 -0.81696421 -0.53722656
nan nan nan
12.34968 -4.526731 3.5101836
4.1940374 -2.5038939 0.76724684
21.692104 -7.9946303 4.4828444
3.4558539 -2.0628138 0.34905878
nan nan nan
3.4805586 -2.0792317 0.070158668
6.0232649 -2.2388947 0.33495009
3.3381827 -1.9964548 -0.20201679
nan nan nan
3.3979461 -2.0346467 -0.4813081
5.6694207 -2.1099112 -0.52515304
2.3877215 -1.4307665 -0.53378546
3.2003937 -1.1919137 -0.53480697
1.752879 -1.051826 -0.53764224
2.2151113 -0.82431436 -0.53722656
nan nan nan
12.33913 -4.5693355 3.511476
4.2110972 -2.5330715 0.77193469
21.640171 -8.0571051 4.477602
3.4272976 -2.0620151 0.34687987
nan nan nan
3.3708754 -2.0288413 0.068064377
5.9199553 -2.2229424 0.32958567
3.3336816 -2.0088031 -0.20214762
nan nan nan
3.3189614 -2.0022867 -0.47096393
5.6623931 -2.1287003 -0.52515304
2.3722134 -1.4327413 -0.53140247
3.1939013 -1.2022113 -0.53441632
1.7595235 -1.0641973 -0.54087329
2.2078018 -0.82994998 -0.53610265
nan nan nan
12.341203 -4.6191449 3.5166457
4.2001185 -2.5464747 0.77154404
21.623404 -8.1369143 4.4799852
3.3927622 -2.0565732 0.34404731
nan nan nan
3.303951 -2.004266 0.066842712
5.8444514 -2.2179544 0.32579133
3.3095834 -2.0100515 -0.2011009
5.8246737 -2.2139475 -0.10816128
3.3055933 -2.0099888 -0.4700512
5.6498952 -2.1476731 -0.52471811
2.3734839 -1.4448457 -0.53283226
3.1919944 -1.2142276 -0.53480697
1.751676 -1.0678146 -0.53958082
2.2001874 -0.83631426 -0.53497875
nan nan nan
12.33404 -4.6656103 3.5192304
4.2080569 -2.5714273 0.77466929
nan nan nan
3.3639579 -2.0559962 0.3418684
nan nan nan
3.2560799 -1.9915614 0.066013724
5.7663364 -2.2125807 0.32186612
3.2979372 -2.0195587 -0.20083922
5.7748961 -2.2181637 -0.10737592
3.253792 -1.9948328 -0.46366215
5.6516662 -2.1709471 -0.52558798
2.3642442 -1.4505523 -0.53187907
3.1900427 -1.2262453 -0.53519762
1.7520512 -1.076455 -0.54087329
2.2040823 -0.84659636 -0.53666461
nan nan nan
nan nan nan
4.1838908 -2.5777607 0.77193469
nan nan nan
3.3313224 -2.0520399 0.33925372
nan nan nan
3.2278366 -1.9897877 0.06557741
5.6794119 -2.2020686 0.31741756
3.2738762 -2.0205603 -0.1997925
5.6412482 -2.1895623 -0.10501985
3.2109339 -1.9839869 -0.45849007
5.6394091 -2.188863 -0.52515304
2.3549933 -1.4562119 -0.53092587
3.1857429 -1.2373731 -0.53519762
1.7462307 -1.0812908 -0.54022706
2.2011137 -0.85428482 -0.53666461
nan nan nan
nan nan nan
4.1816115 -2.5955298 0.77310663
nan nan nan
3.3029861 -2.0505099 0.33707482
nan nan nan
3.185133 -1.9780444 0.064835683
5.6185946 -2.1999943 0.31440824
3.2353652 -2.0116165 -0.1978299
5.5707216 -2.1846483 -0.10384181
3.1769593 -1.9775628 -0.45453495
5.6321197 -2.207552 -0.52515304
2.356142 -1.4683218 -0.53235567
3.1860039 -1.2502838 -0.53597891
1.7444935 -1.0886604 -0.54087329
2.1982684 -0.8615793 -0.53666461
nan nan nan
20.632273 -8.0491724 5.9166498
4.1934557 -2.6232142 0.77701318
nan nan nan
3.2771704 -2.0495574 0.33511385
nan nan nan
3.1654999 -1.9811875 0.064573899
5.5458593 -2.1939282 0.31074473
3.2283237 -2.0228977 -0.1978299
5.5006781 -2.1783085 -0.10266377
3.1700368 -1.9886403 -0.45453495
5.6197467 -2.2253678 -0.52471811
2.3489249 -1.4752307 -0.53187907
3.1862137 -1.2632114 -0.53676027
1.7408738 -1.0944393 -0.54087329
2.1952477 -0.86924744 -0.53666461
nan nan nan
20.608543 -8.1229124 5.917942
4.1842737 -2.637836 0.77701318
nan nan nan
3.2531457 -2.0503526 0.33337072
nan nan nan
3.1395431 -1.9802139 0.064181224
5.4662776 -2.1846073 0.30668867
3.1853683 -2.0114756 -0.19560564
5.4396467 -2.1761832 -0.10166026
3.1274312 -1.977134 -0.44936287
5.6096311 -2.2440476 -0.52450067
2.343761 -1.483421 -0.53187907
3.179491 -1.2734106 -0.53636956
1.7370429 -1.1005094 -0.54087329
2.1922002 -0.87690502 -0.53666461
nan nan nan
20.674309 -8.2323046 5.9450827
4.1917105 -2.6630251 0.78013843
nan nan nan
3.2333593 -2.0536778 0.33206338
28.346769 -11.394495 3.7415466
3.1178493 -1.9817673 0.063875802
5.3937778 -2.1775563 0.30302519
3.1593771 -2.0105095 -0.19442807
5.3736815 -2.1727269 -0.10056949
3.0995898 -1.9746951 -0.44632047
5.5990591 -2.2636609 -0.52428317
2.340637 -1.4929143 -0.53235567
3.1750267 -1.2845014 -0.53636956
1.7329977 -1.1068686 -0.54087329
2.1844509 -0.88311672 -0.5355407
11.299113 -7.2377176 3.0873668
20.829187 -8.3782854 5.9980717
4.1907053 -2.6829698 0.78170109
nan nan nan
3.2090366 -2.0547631 0.33032027
28.318317 -11.49804 3.743068
3.0895257 -1.9796849 0.063439496
5.3210149 -2.1709545 0.29936165
3.1120746 -1.9964427 -0.19194211
5.2989354 -2.1641171 -0.099304192
3.0756335 -1.9753062 -0.44388652
5.5911231 -2.2831917 -0.52428317
2.327157 -1.4957621 -0.53044933
3.1659501 -1.2937145 -0.53558832
1.7230347 -1.1089844 -0.53893471
2.1881258 -0.8934859 -0.53722656
11.23363 -7.2539687 3.0766897
nan nan nan
4.1829181 -2.6996515 0.78209174
nan nan nan
3.1809247 -2.0524392 0.32814136
28.213997 -11.576332 3.7348533
3.063704 -1.9782443 0.063046813
5.264915 -2.1695788 0.29661402
3.090415 -1.9977983 -0.19102623
5.2404947 -2.1616714 -0.098344304
3.0478945 -1.972537 -0.44084415
5.5785136 -2.3007989 -0.5238483
2.3298938 -1.5096253 -0.53235567
3.1634703 -1.3062489 -0.53597891
1.7232029 -1.117624 -0.54022706
2.1872475 -0.90204281 -0.53778851
11.063285 -7.1987848 3.0367911
nan nan nan
4.1838164 -2.7209709 0.78404498
nan nan nan
3.1570427 -2.0526612 0.32639825
nan nan nan
3.0337408 -1.9739192 0.062566876
5.195056 -2.1620934 0.29308134
3.0520549 -1.9881175 -0.18906364
5.1682887 -2.1530886 -0.097122639
3.0285237 -1.9750248 -0.4390187
5.5704489 -2.3202574 -0.5238483
2.3246102 -1.517749 -0.53235567
3.1657326 -1.3201257 -0.53715092
1.7152506 -1.1209862 -0.53893471
2.1818349 -0.90874004 -0.53722656
10.940314 -7.1732311 3.0098174
13.425444 -5.5687737 3.8798125
4.1825519 -2.7409756 0.78560758
nan nan nan
3.133198 -2.0527418 0.32465515
nan nan nan
3.0101147 -1.9735237 0.062217824
5.1414299 -2.1609054 0.29046455
3.032578 -1.990533 -0.18827859
5.1077304 -2.1488647 -0.096119121
2.9929321 -1.9659688 -0.43475935
5.562315 -2.3396878 -0.5238483
2.3134155 -1.5213994 -0.53092587
3.1499515 -1.3258419 -0.53519762
1.7173744 -1.1309571 -0.54087329
2.1741548 -0.91447037 -0.53610265
nan nan nan
13.41136 -5.6151276 3.8811049
4.1754994 -2.7561915 0.78599823
nan nan nan
3.1139059 -2.054884 0.32334781
5.7822175 -2.4450753 0.76546854
2.9868727 -1.9724665 0.061868776
5.0790567 -2.1545889 0.28732437
2.9572592 -1.9551059 -0.18396087
5.06145 -2.1492147 -0.095377393
2.9739835 -1.9676611 -0.4329339
5.5522327 -2.3571486 -0.52363086
2.3104026 -1.5304193 -0.53140247
3.1478114 -1.3372426 -0.53558832
1.7075807 -1.1326355 -0.53893471
2.1688664 -0.92072761 -0.5355407
nan nan nan
nan nan nan
4.1766157 -2.7768626 0.78795159
12.366844 -5.2544003 2.6026807
3.0863404 -2.0514021 0.3211689
5.7074461 -2.4370341 0.7566455
2.9636707 -1.9712769 0.061519727
5.0098948 -2.1449411 0.28379169
2.9486821 -1.963517 -0.18383004
4.9964623 -2.142292 -0.094286613
2.9505856 -1.9670099 -0.43049997
5.5371008 -2.3735766 -0.52297848
2.3070867 -1.5398386 -0.53187907
3.1408539 -1.347252 -0.53519762
1.7096364 -1.1426207 -0.54087329
2.1633983 -0.92733735 -0.53497875
10.517101 -7.0489244 2.9125996
nan nan nan
4.1689487 -2.7927999 0.78834224
12.321359 -5.2859344 2.5969615
3.0767324 -2.0613129 0.32095101
5.6487584 -2.4353662 0.74995226
2.9356716 -1.9681956 0.061083421
4.9469852 -2.1395502 0.28065154
2.9456103 -1.9770962 -0.18409172
4.9453545 -2.1408887 -0.093457632
2.9207087 -1.9625756 -0.42715335
5.5356417 -2.3958528 -0.52363086
2.3057687 -1.5506243 -0.53283226
3.1338646 -1.357229 -0.53480697
1.7076395 -1.1499323 -0.54151952
2.1534355 -0.9319939 -0.53329289
10.499269 -7.0928798 2.9148474
nan nan nan
4.1730061 -2.817739 0.79107678
12.308659 -5.3339844 2.5983913
3.0488837 -2.0580955 0.31877214
5.541935 -2.4135237 0.73686993
2.912219 -1.9672285 0.060734373
4.8731112 -2.1278894 0.2768572
2.9076812 -1.9663712 -0.18212913
4.8897347 -2.1371565 -0.092541374
2.9097319 -1.969974 -0.42654485
5.5181131 -2.4111791 -0.52276105
2.2960091 -1.5563082 -0.53187907
3.1288691 -1.3687061 -0.53480697
1.6976233 -1.1518124 -0.53958082
2.1524034 -0.94047618 -0.53385484
10.5268 -7.165132 2.9294581
11.692747 -5.0892162 3.4029136
4.1794734 -2.8434062 0.79420203
12.269727 -5.3680716 2.5941019
3.0355051 -2.0645206 0.31811845
5.4584899 -2.3999529 0.72683001
2.8784807 -1.9590843 0.060167167
4.8153763 -2.1227746 0.27397871
2.8843005 -1.9652537 -0.18108241
4.8296261 -2.1310482 -0.091537863
2.8946409 -1.9745213 -0.42532787
5.5142217 -2.4324334 -0.52319592
2.2925882 -1.5656989 -0.53235567
3.1240723 -1.3796195 -0.53480697
1.6955849 -1.159096 -0.54022706
2.1535687 -0.94994116 -0.53497875
10.626269 -7.2872715 2.9642994
11.692603 -5.1377659 3.4080832
4.1715589 -2.8593748 0.79459268
12.235196 -5.4039326 2.590766
3.022119 -2.0708776 0.3174648
5.3661327 -2.3818095 0.71557307
2.844835 -1.9507288 0.059599966
4.7577376 -2.1172833 0.27110025
2.8589053 -1.9625832 -0.17990485
4.7787576 -2.128607 -0.090708874
2.8877313 -1.9846134 -0.42532787
5.4988694 -2.4486325 -0.52254355
2.2850881 -1.5722994 -0.53187907
3.1147244 -1.3885115 -0.53402567
1.6875534 -1.1622643 -0.53893471
2.1546943 -0.95942581 -0.53610265
nan nan nan
nan nan nan
4.1798348 -2.8865545 0.79810864
12.200564 -5.4396181 2.5874295
3.0046279 -2.0743339 0.31637534
5.2898278 -2.370141 0.70644587
2.8195062 -1.94785 0.059207287
4.7115879 -2.1165206 0.26887596
2.843827 -1.9668658 -0.17938149
4.7256856 -2.1248138 -0.089836262
2.8787465 -1.9932677 -0.42502365
5.4880161 -2.4667926 -0.52232611
2.2816017 -1.5816659 -0.53235567
3.1076052 -1.3983653 -0.53363502
1.6914173 -1.1736624 -0.54151952
2.1468847 -0.96495265 -0.53497875
nan nan nan
nan nan nan
4.1818914 -2.9095936 0.80045253
12.14569 -5.4660702 2.5798039
2.985106 -2.0762708 0.31506801
5.1729574 -2.3395958 0.69184238
2.8106389 -1.956251 0.059163652
4.6564035 -2.111346 0.26612833
2.8205636 -1.9653534 -0.17833477
4.6677737 -2.1194291 -0.088876374
2.8778744 -2.0075667 -0.42593637
5.4721327 -2.483808 -0.52167374
2.2760668 -1.5896206 -0.53235567
3.1094537 -1.4122585 -0.53480697
1.6851267 -1.1784681 -0.54087329
2.141113 -0.97181249 -0.53441679
9.6619339 -6.775599 2.7142305
20.347816 -9.1924868 5.9651151
4.2000103 -2.9440262 0.80592167
12.128772 -5.5094481 2.5802808
2.9652445 -2.078614 0.31376067
5.1241126 -2.339123 0.68636602
2.7932222 -1.9593564 0.058945496
4.6009455 -2.1066153 0.26338068
2.8031297 -1.9684985 -0.17768057
4.6217008 -2.1180406 -0.088134646
2.868468 -2.0166731 -0.42563212
5.4679589 -2.5049653 -0.52210867
2.2705042 -1.5975558 -0.53235567
3.1089976 -1.4251559 -0.53558832
1.6849486 -1.1871285 -0.54216564
2.1443579 -0.98231095 -0.53610265
9.4759178 -6.6970572 2.6687121
20.355738 -9.2860403 5.9773932
4.1992731 -2.9665279 0.80787498
12.112959 -5.5559096 2.581234
2.9457695 -2.0803258 0.31245336
5.0613995 -2.3330026 0.67906427
2.7802441 -1.9647635 0.058814604
4.5368829 -2.0965326 0.26010969
2.7738307 -1.9623979 -0.17624132
4.5756955 -2.1163566 -0.087392919
2.8695076 -2.0324147 -0.4268491
5.454659 -2.5219498 -0.52167374
2.2646339 -1.6058668 -0.53235567
3.094784 -1.4324046 -0.53402567
1.6768584 -1.1902037 -0.54087329
2.1453421 -0.99182606 -0.53722656
9.4624023 -6.7371593 2.6715219
20.35611 -9.3721819 5.9870863
4.2110167 -2.9969256 0.81217217
12.122448 -5.6115503 2.5874295
2.9303751 -2.0848162 0.31158176
4.9609437 -2.3078206 0.66659039
2.7672625 -1.9701041 0.058683712
4.4865284 -2.0923469 0.25762373
2.7547705 -1.9633678 -0.17545629
4.5184288 -2.1091015 -0.086433038
2.8724916 -2.0496309 -0.4283703
5.4525952 -2.5441287 -0.52232611
2.2630062 -1.6166178 -0.53330886
3.0920036 -1.4442407 -0.53441632
1.6746566 -1.1974562 -0.54151952
2.1396575 -0.99828309 -0.53666461
9.4815788 -6.798317 2.6833231
20.303009 -9.4294643 5.9806237
4.2110882 -3.0180697 0.81412548
12.146029 -5.6714325 2.5964849
2.921422 -2.093071 0.31136391
4.8925872 -2.2958488 0.65837592
2.7546222 -1.9748971 0.05855282
4.4366241 -2.0870616 0.25513777
2.7401347 -1.9666647 -0.17493293
4.4657931 -2.1035988 -0.085560411
2.8757508 -2.0663903 -0.4298915
5.4391737 -2.561028 -0.52189124
2.2516594 -1.6198097 -0.53187907
3.0827272 -1.4523875 -0.53363502
1.6724247 -1.204708 -0.54216564
2.1361597 -1.0057458 -0.53666461
9.4676638 -6.8385057 2.6861329
nan nan nan
4.2165389 -3.0443196 0.81725073
12.190551 -5.7441096 2.6103063
2.909694 -2.1008465 0.31092811
4.817235 -2.2811115 0.64924872
2.7433145 -1.9820498 0.058465559
4.3928461 -2.0862062 0.25304434
2.7268419 -1.9723017 -0.17454042
4.4177699 -2.0998969 -0.08477506
2.8701665 -2.078373 -0.43019572
5.4279509 -2.5789316 -0.52167374
2.2479775 -1.6291013 -0.53235567
3.0754073 -1.462082 -0.53324437
1.6603961 -1.2048575 -0.53958082
2.1370406 -1.0152782 -0.53778851
9.3854265 -6.8315759 2.669836
nan nan nan
4.2352953 -3.0815561 0.82311052
nan nan nan
2.8963032 -2.1065924 0.31027445
4.8025236 -2.294709 0.64833599
2.7262783 -1.9842534 0.058247402
4.3337307 -2.0767615 0.25003502
2.7098558 -1.9744514 -0.17388621
4.3675718 -2.0948064 -0.083946072
2.8729138 -2.0956962 -0.43171692
5.4099288 -2.5935631 -0.52080393
2.2402959 -1.6354898 -0.53187907
3.0747402 -1.4749384 -0.53402567
1.6620255 -1.2149272 -0.54151952
2.131285 -1.0216831 -0.53722656
9.3253946 -6.8352942 2.6591592
nan nan nan
4.244967 -3.1101854 0.82701707
nan nan nan
2.8808992 -2.1107974 0.30940288
4.7251644 -2.2781124 0.63890457
2.7156527 -1.9903258 0.058160141
4.2953362 -2.075942 0.24820326
2.6992693 -1.9804709 -0.17362453
4.3152122 -2.0883048 -0.083073445
2.8679478 -2.1066818 -0.43202117
5.4035416 -2.612571 -0.52102137
2.2325971 -1.6418445 -0.53140247
3.0629005 -1.4824438 -0.53285366
1.650001 -1.2149862 -0.53893471
2.1344712 -1.0319132 -0.53891242
9.2701273 -6.8446469 2.6501679
nan nan nan
4.2638779 -3.1469896 0.83287692
14.701392 -7.1151953 3.1650617
2.8658707 -2.1144207 0.30853134
4.6725359 -2.2729223 0.63281971
2.7046685 -1.9968216 0.058072876
4.2409177 -2.0679893 0.24545564
2.6883261 -1.9869109 -0.17336285
4.260705 -2.0803688 -0.082157202
2.8705463 -2.1240654 -0.43354237
5.3894515 -2.6301773 -0.52058649
2.2288237 -1.65109 -0.53187907
3.0599279 -1.4942069 -0.53324437
1.651565 -1.2250601 -0.54087329
2.1219091 -1.0354732 -0.53666461
9.1855907 -6.8318868 2.6327472
nan nan nan
4.2647533 -3.1706984 0.83522081
14.764689 -7.2095175 3.1841254
2.8561039 -2.1234236 0.30831343
4.5665164 -2.2412021 0.61943316
2.6873083 -1.9992554 0.057854723
4.1974535 -2.0659144 0.2433622
2.6750212 -1.9922738 -0.17297032
4.2175231 -2.0775898 -0.081459105
2.8885927 -2.1538687 -0.4374975
5.3847079 -2.6511707 -0.52102137
2.2210808 -1.6573908 -0.53140247
3.0591264 -1.5070555 -0.53402567
1.6472784 -1.2308177 -0.54087329
2.1204693 -1.0439454 -0.53722656
9.172184 -6.8742752 2.6361191
nan nan nan
4.2669334 -3.1966767 0.83795536
14.797611 -7.292861 3.1969936
2.8446891 -2.1303926 0.30787766
nan nan nan
2.6823125 -2.010124 0.057898354
4.1432357 -2.0572834 0.24061455
2.6660545 -2.0000999 -0.17283949
4.1676936 -2.0712042 -0.080630116
2.746191 -2.0625315 -0.41680917
5.3709583 -2.6677382 -0.52058649
2.2228332 -1.6714255 -0.53330886
3.0469446 -1.5149684 -0.53285366
1.6429721 -1.2365602 -0.54087329
2.1168122 -1.0513408 -0.53722656
9.2083941 -6.9517598 2.6535394
15.074826 -7.4588981 4.4911222
4.2872772 -3.2353611 0.84420586
14.717119 -7.3171706 3.1850789
2.8312728 -2.1358063 0.30722398
nan nan nan
2.6692972 -2.0149534 0.057767462
4.1025295 -2.0549948 0.23865195
2.6570656 -2.0078876 -0.17270865
4.1313758 -2.0712049 -0.080062911
2.7627118 -2.0900831 -0.42046005
5.3660684 -2.6886981 -0.52102137
2.2111194 -1.6747252 -0.53187907
3.048264 -1.5289074 -0.53402567
1.6405689 -1.2437485 -0.54151952
2.1196699 -1.0619844 -0.53891242
9.1879501 -6.9868112 2.6546633
15.005474 -7.4899139 4.4781981
nan nan nan
14.601533 -7.3234134 3.1655383
2.8218184 -2.1441686 0.30700612
nan nan nan
2.6622474 -2.0242586 0.057767462
4.0618906 -2.0524473 0.23668936
2.6420979 -2.0110972 -0.17218529
4.0794864 -2.0630965 -0.079190291
2.7139695 -2.0681074 -0.41407099
5.3477564 -2.7029262 -0.52015162
2.2016528 -1.6790692 -0.53092587
3.036562 -1.535673 -0.53285366
1.6362172 -1.2494676 -0.54151952
2.1137736 -1.0682824 -0.53835046
9.2382183 -7.0735292 2.6760178
14.736754 -7.4170141 4.4051771
nan nan nan
14.531171 -7.3485489 3.15553
2.8083856 -2.1494613 0.30635244
3.9748602 -2.020802 0.54246038
2.6456006 -2.0254726 0.057549305
4.0149999 -2.0455461 0.23433423
2.6354144 -2.0198479 -0.17218529
4.0343876 -2.0580521 -0.078448564
2.6992254 -2.0710495 -0.41285405
5.3409834 -2.7217741 -0.52036905
2.1957784 -1.6867441 -0.53092587
3.0377865 -1.5496206 -0.53402567
1.6222813 -1.2478006 -0.53828847
2.1058743 -1.0730824 -0.53722656
9.1961126 -7.0923409 2.6709599
14.486785 -7.354774 4.3379717
9.4718332 -7.3050733 1.8868647
14.549158 -7.4215174 3.1650617
2.805186 -2.1618049 0.30678821
3.9478996 -2.0244946 0.5397222
2.6365354 -2.0331676 0.057505675
3.976732 -2.0436046 0.23250249
2.6263723 -2.027508 -0.17205445
3.9915984 -2.0538597 -0.077750467
2.6939421 -2.0819774 -0.41315827
5.3309722 -2.7413316 -0.52036905
2.191817 -1.6959015 -0.53140247
3.0301616 -1.5590883 -0.53363502
1.6217312 -1.2564174 -0.53958082
2.1062641 -1.0830132 -0.53835046
9.1732235 -7.1258931 2.6715219
14.319133 -7.3326874 4.2953224
9.5691147 -7.433547 1.911476
14.470783 -7.4453268 3.1536233
2.7933114 -2.1690152 0.30635244
3.9253719 -2.0302987 0.53759253
2.6310391 -2.0443523 0.057549305
3.9315178 -2.0386677 0.23027821
2.6248326 -2.0417225 -0.17244697
3.9511077 -2.0505431 -0.077096
2.6882503 -2.0933628 -0.41346252
5.3125229 -2.7553432 -0.51949918
2.1858838 -1.7035421 -0.53140247
3.0203145 -1.567387 -0.53285366
1.6192383 -1.2635581 -0.54022706
2.0981414 -1.0881242 -0.53722656
9.1470451 -7.1594663 2.6715219
14.296452 -7.3873358 4.2966146
9.5223618 -7.4533458 1.9075693
14.711346 -7.6373243 3.2122447
2.7798402 -2.1741462 0.30569878
3.9028523 -2.0359707 0.53546286
2.6199517 -2.0504405 0.057462048
3.893388 -2.0362124 0.22844644
2.6098323 -2.044709 -0.17192361
3.9084737 -2.0458121 -0.076397911
2.6789749 -2.1012013 -0.41315827
5.3028727 -2.7738705 -0.51949918
2.1779947 -1.7096453 -0.53092587
3.0104461 -1.5756363 -0.53207237
1.6110232 -1.2662145 -0.53893471
2.0964913 -1.0965662 -0.53778851
9.1175137 -7.1852355 2.669836
14.186189 -7.3900981 4.2707663
9.5518904 -7.5276871 1.9185078
nan nan nan
2.7722342 -2.1838365 0.30569878
3.8891299 -2.0461226 0.53455013
2.613138 -2.0591173 0.057462048
3.8512602 -2.0305192 0.22635299
2.6147931 -2.0626364 -0.17270865
3.8637092 -2.039644 -0.075656183
2.673939 -2.1116126 -0.41346252
5.289237 -2.7891202 -0.51906431
2.1777861 -1.7218078 -0.53235567
3.0092983 -1.5884345 -0.53285366
1.6122699 -1.2763325 -0.54087329
2.0950005 -1.1046444 -0.53835046
nan nan nan
13.972139 -7.3407831 4.2139006
9.4365988 -7.4903502 1.9005375
nan nan nan
2.7708282 -2.1976633 0.30635244
3.8907366 -2.0643284 0.53576708
2.6059344 -2.0682263 0.057462048
3.8132713 -2.0275738 0.22452125
2.6153924 -2.0779679 -0.173232
3.8234513 -2.0355332 -0.075001717
2.6840219 -2.1348448 -0.41620067
5.2591829 -2.7979748 -0.51710719
2.1698437 -1.727869 -0.53187907
3.0037353 -1.5989292 -0.53285366
1.6059178 -1.2804452 -0.54022706
2.0823262 -1.107756 -0.53610265
nan nan nan
13.833311 -7.3296165 4.1796517
nan nan nan
13.18891 -7.0208192 2.8948328
2.753031 -2.2000253 0.30526298
3.9097767 -2.0919182 0.53941798
2.5924823 -2.073077 0.057331149
3.7771974 -2.0262244 0.22282031
2.6077588 -2.0875397 -0.173232
3.7788625 -2.0288064 -0.074259989
2.6665022 -2.1369038 -0.4146795
5.2296243 -2.8057342 -0.51515007
2.1695392 -1.7400429 -0.53330886
2.9981356 -1.6094043 -0.53285366
1.6014384 -1.2860432 -0.54022706
2.0827444 -1.1173128 -0.53722656
6.2767382 -5.0550056 1.8510714
13.744579 -7.3472705 4.1609116
nan nan nan
13.130651 -7.0517054 2.8876841
2.7492135 -2.2127471 0.30569878
nan nan nan
2.5852301 -2.082114 0.057331149
3.741539 -2.0239854 0.2211194
2.5985134 -2.0950618 -0.17310117
3.7409656 -2.0253563 -0.073649146
nan nan nan
5.2066498 -2.8168714 -0.51384538
2.1577282 -1.7429751 -0.53187907
2.994673 -1.6210327 -0.53324437
1.6006922 -1.2946664 -0.54151952
2.0831215 -1.1268859 -0.53835046
6.2334547 -5.054306 1.8432041
13.673358 -7.36762 4.1466951
6.2165489 -5.040607 1.2606444
13.202173 -7.146585 2.908654
2.7356713 -2.217622 0.3050451
nan nan nan
2.5744302 -2.0875247 0.057243891
3.708488 -2.022068 0.21954931
2.6051135 -2.1146886 -0.17401704
3.7031393 -2.021667 -0.073038317
nan nan nan
5.162281 -2.8150711 -0.51036608
2.1478255 -1.7473961 -0.53092587
2.9911652 -1.6326563 -0.53363502
1.5905502 -1.2956647 -0.53958082
2.0708089 -1.1291395 -0.53610265
6.1987967 -5.0621624 1.8381466
13.647557 -7.4153037 4.1466951
6.1683216 -5.0372791 1.2543939
13.390442 -7.3089662 2.955837
2.7398741 -2.236136 0.30635244
nan nan nan
2.5651925 -2.0949159 0.057200257
3.6729498 -2.0193949 0.21784841
2.5803285 -2.1095378 -0.17283949
3.6566207 -2.0129261 -0.072252959
nan nan nan
nan nan nan
2.14361 -1.7564394 -0.53140247
2.9789534 -1.6395245 -0.53246307
1.5916147 -1.3058097 -0.54151952
2.07093 -1.1390616 -0.53722656
6.173564 -5.0775781 1.8358986
13.691495 -7.5011697 4.1680198
6.1373525 -5.0477967 1.2516594
13.407855 -7.3793168 2.9653687
2.7643478 -2.2730708 0.31005654
3.9345026 -2.1762743 0.54702401
2.5555675 -2.1027145 0.057156626
3.6305699 -2.0135083 0.21575497
2.5899148 -2.1332762 -0.17401704
3.6211433 -2.009939 -0.071685761
nan nan nan
nan nan nan
2.1393576 -1.7654748 -0.53187907
2.973212 -1.649913 -0.53246307
1.581466 -1.3067372 -0.53958082
2.0669413 -1.1462835 -0.53722656
6.1455359 -5.0923977 1.8330889
13.765386 -7.6073418 4.1990376
6.1093054 -5.062377 1.249706
13.279855 -7.3724537 2.9429688
2.8177497 -2.3335705 0.317029
3.9030297 -2.1767242 0.54367733
2.5501361 -2.1132183 0.057200257
3.6017156 -2.0140083 0.21444657
2.5786114 -2.1391137 -0.17375536
3.5835483 -2.0055101 -0.071074918
3.2718301 -2.7177262 -0.51720846
3.6684656 -2.0529242 -0.36401913
2.1350684 -1.7745018 -0.53235567
2.9588087 -1.6554703 -0.53090042
1.5824598 -1.3168893 -0.54151952
2.0629275 -1.1534915 -0.53722656
6.1304855 -5.1143103 1.8336509
13.765405 -7.6670413 4.2067924
6.0943799 -5.0841908 1.2500967
13.285321 -7.433218 2.9496412
2.8688505 -2.392874 0.32378358
3.8867512 -2.1854794 0.54246038
2.5469513 -2.1248679 0.057287522
3.5493145 -2.0002518 0.21169895
2.5676727 -2.1444499 -0.17349368
3.548208 -2.00207 -0.07050772
3.2742164 -2.7381172 -0.51903391
3.6464434 -2.0565302 -0.36249694
2.119457 -1.7740612 -0.52997267
2.9573166 -1.6682088 -0.53168172
1.5797027 -1.323958 -0.54216564
2.0590909 -1.1603261 -0.53722656
6.1256485 -5.1466508 1.8375846
13.801742 -7.7505016 4.2261786
6.0728154 -5.1022558 1.2493154
13.398257 -7.5578799 2.9806197
2.8952155 -2.4312196 0.32770559
3.8553393 -2.1855962 0.53911376
2.5356929 -2.1305273 0.057200257
3.5271056 -2.0040123 0.21078305
2.5601718 -2.1533997 -0.17349368
3.5611179 -2.0249236 -0.070900396
3.260844 -2.7463307 -0.51842541
3.5959153 -2.044673 -0.35814783
2.1188774 -1.7861978 -0.53140247
2.9514754 -1.6785216 -0.53168172
1.5716152 -1.326071 -0.54087329
2.0613894 -1.1711042 -0.53891242
6.1243796 -5.182168 1.8426422
13.711544 -7.7629547 4.2067924
6.0625072 -5.1298046 1.250878
13.307783 -7.5682249 2.9663219
2.9152234 -2.4654484 0.33097392
3.8369086 -2.1928954 0.53759253
2.5339622 -2.144213 0.057331149
3.5070829 -2.0088816 0.20999801
2.5431192 -2.1542497 -0.17283949
3.5214787 -2.0187309 -0.070245937
3.2531295 -2.7593026 -0.51872963
3.575784 -2.0497954 -0.35684311
2.1163692 -1.7967625 -0.53235567
2.947742 -1.6900393 -0.53207237
1.5651379 -1.3299834 -0.54022706
2.0530565 -1.1758794 -0.53778851
6.1247902 -5.2193184 1.8482617
13.724222 -7.8335042 4.2190704
6.0577173 -5.1621494 1.2536126
13.40266 -7.6841731 2.9934878
2.9255517 -2.4917672 0.33315283
3.8120198 -2.1963828 0.53515863
2.5283632 -2.1546674 0.057374783
3.4675984 -2.0024211 0.20803542
2.5336854 -2.1614921 -0.17270865
3.5378749 -2.0453594 -0.070725873
3.2547941 -2.7803168 -0.52055508
3.5553019 -2.0554228 -0.3555384
2.1007633 -1.7961583 -0.52997267
2.9396853 -1.6990857 -0.53168172
1.5620859 -1.3372834 -0.54087329
2.0508447 -1.1846107 -0.53835046
6.1490436 -5.2771649 1.8611865
13.684231 -7.8741393 4.2151928
6.0452809 -5.1880894 1.2547845
13.329004 -7.703907 2.9830029
2.9220669 -2.5073411 0.33380648
3.7978888 -2.2059436 0.53424591
2.5318232 -2.173696 0.05763657
3.4364889 -2.0013237 0.20659618
2.5219615 -2.1675074 -0.17244697
3.5307138 -2.0576966 -0.070725873
3.2483425 -2.7954664 -0.52116358
3.5502582 -2.069072 -0.35575584
2.0981979 -1.8066857 -0.53092587
2.9380066 -1.7118173 -0.53246307
1.5628911 -1.3474638 -0.54281187
2.0509119 -1.1942055 -0.53947437
nan nan nan
13.644835 -7.9181843 4.2119617
nan nan nan
13.468207 -7.8502903 3.0206537
2.9132969 -2.5175259 0.33380648
3.8115919 -2.231703 0.53728831
2.5223303 -2.1808844 0.05759294
3.3950109 -1.9931237 0.20450275
2.5124934 -2.1746626 -0.17231613
3.4243052 -2.0118754 -0.068718851
3.2348156 -2.8035362 -0.52055508
3.431278 -2.0159757 -0.34444818
2.0937314 -1.8156079 -0.53140247
2.9277518 -1.7195672 -0.53168172
1.5508897 -1.3465708 -0.54022706
2.0404212 -1.1976702 -0.53778851
nan nan nan
13.681054 -7.9999418 4.2313476
nan nan nan
13.480197 -7.9172697 3.0292323
2.9213922 -2.542403 0.33576751
3.829438 -2.2601027 0.54093915
2.5169687 -2.1908791 0.05763657
3.3711808 -1.9942219 0.20345601
2.5127933 -2.1895468 -0.17283949
3.421566 -2.0263586 -0.068806104
3.229239 -2.8175123 -0.52116358
3.3924055 -2.0083487 -0.34118637
2.0873814 -1.8229052 -0.53140247
2.9174788 -1.7272663 -0.53090042
1.5443631 -1.3503848 -0.53958082
2.040637 -1.2069021 -0.53891242
8.8315363 -7.7425089 2.7013056
13.671774 -8.0586815 4.237164
8.5953035 -7.5353551 1.8028737
13.408123 -7.9380345 3.0192239
2.911073 -2.5504344 0.33554959
3.8279271 -2.2772558 0.54185188
2.5055482 -2.1963542 0.057549305
3.3212833 -1.9804552 0.20083922
2.497633 -2.1917143 -0.17231613
3.3650737 -2.0088778 -0.067802593
3.2193844 -2.8287673 -0.52116358
3.3422232 -1.9952865 -0.33683729
2.0828471 -1.8318025 -0.53187907
2.9135535 -1.7387021 -0.53129107
1.5450732 -1.3605607 -0.54151952
2.0278213 -1.2093985 -0.53666461
8.7953262 -7.7652268 2.6984959
13.710011 -8.1458111 4.2578425
8.5856056 -7.5800238 1.8063896
13.37401 -7.9810185 3.0177941
2.9166369 -2.5742786 0.33729273
3.8625436 -2.3160825 0.54793674
2.4974813 -2.2055225 0.057549305
3.2990146 -1.9836273 0.19992335
2.4933217 -2.2041628 -0.17257781
3.3130322 -1.9936 -0.066886343
3.2127097 -2.8438389 -0.52177203
3.3309667 -2.0043776 -0.33640236
2.0727682 -1.8358051 -0.53092587
2.9074664 -1.7488616 -0.53129107
1.5421197 -1.3675497 -0.54216564
2.0235872 -1.2164695 -0.53666461
8.7631664 -7.7941723 2.697372
13.599254 -8.1476231 4.2326403
8.6850576 -7.7246943 1.8333449
nan nan nan
2.9020514 -2.5794773 0.33663905
3.8161857 -2.3064868 0.54246038
2.4879003 -2.2125645 0.057505675
3.2664311 -1.9796337 0.19835328
2.4818852 -2.2095304 -0.17231613
3.3017755 -2.0025649 -0.066799082
3.2027631 -2.8550363 -0.52177203
3.2813303 -1.9902117 -0.33205327
2.070008 -1.8462988 -0.53187907
2.9055707 -1.7615545 -0.53207237
1.5301375 -1.366483 -0.53958082
2.0255864 -1.2273005 -0.53835046
8.6828346 -7.7744312 2.6805134
13.460494 -8.1253128 4.1977453
8.7679167 -7.8506532 1.8563936
nan nan nan
2.887465 -2.5846059 0.33598539
3.8017497 -2.3159273 0.54154766
2.4731042 -2.2141292 0.057331149
3.2406576 -1.9787681 0.19717571
2.4856942 -2.2277522 -0.17310117
3.2968996 -2.0153794 -0.066842712
3.1932778 -2.8656411 -0.52177203
3.2598257 -1.9920095 -0.33053109
2.0671999 -1.8567954 -0.53283226
2.8930781 -1.7678322 -0.53090042
1.5235643 -1.3701994 -0.53893471
2.0110967 -1.2276849 -0.5355407
8.6411724 -7.7916398 2.6760178
nan nan nan
8.7202892 -7.8630185 1.8520963
nan nan nan
2.8770289 -2.5924988 0.33576751
3.8021069 -2.3343685 0.54276466
2.4635048 -2.2210739 0.057287522
3.2039418 -1.9717851 0.19534394
2.4723454 -2.2313941 -0.17270865
3.266418 -2.0124805 -0.066362776
3.1814153 -2.8751059 -0.5214678
3.2609906 -2.0091596 -0.33140093
2.0534306 -1.85741 -0.53092587
2.8932023 -1.7817961 -0.53207237
1.5259261 -1.3820007 -0.54151952
2.0148916 -1.2401389 -0.53778851
8.6067095 -7.8152037 2.6737697
nan nan nan
8.5593596 -7.7722106 1.8235786
nan nan nan
2.863821 -2.5996764 0.33533171
3.7939351 -2.3476262 0.54276466
2.4479501 -2.2233615 0.057112999
3.1818326 -1.9743187 0.19442807
2.4789202 -2.253885 -0.17375536
3.2784989 -2.0357146 -0.066755451
3.1690221 -2.8850756 -0.52116358
3.2539573 -2.0205302 -0.33140093
2.0487473 -1.8662202 -0.53140247
2.8827653 -1.7892858 -0.53129107
1.51931 -1.3856897 -0.54087329
2.0105505 -1.2471646 -0.53778851
8.5690212 -7.8384743 2.6709599
nan nan nan
8.5472107 -7.8185329 1.8270944
nan nan nan
2.8547292 -2.6096573 0.33533171
3.7878242 -2.3621662 0.54306889
2.4420178 -2.2335808 0.057156626
3.1452644 -1.9669172 0.1925963
2.4599953 -2.2524025 -0.17297032
3.2183607 -2.0140591 -0.065664671
3.1680734 -2.9045086 -0.52268481
3.2489974 -2.033195 -0.33161837
2.0386059 -1.8700402 -0.53044933
2.878597 -1.8006442 -0.53168172
1.5180179 -1.3942552 -0.54216564
1.9999806 -1.2503133 -0.53610265
8.5161047 -7.8420901 2.6625307
nan nan nan
8.5884352 -7.9087338 1.8415487
11.002225 -6.8830366 2.5135574
2.8510966 -2.6246693 0.33598539
3.7795556 -2.3753736 0.54306889
2.430922 -2.2382784 0.057069365
3.1218126 -1.9667114 0.19154958
2.4598517 -2.2673199 -0.17349368
3.1584146 -1.992009 -0.064573899
3.1511333 -2.9082632 -0.5214678
3.2422371 -2.0439579 -0.33161837
2.0320659 -1.8771447 -0.53044933
2.8764756 -1.8133094 -0.53246307
1.5078276 -1.3946211 -0.54022706
1.9958234 -1.2569386 -0.53610265
8.4904652 -7.873426 2.6630929
nan nan nan
8.4050875 -7.7942433 1.8079523
11.01966 -6.9475622 2.5230894
2.8368998 -2.6290283 0.33533171
3.7754359 -2.3912034 0.54367733
2.424926 -2.2484508 0.057112999
3.0917261 -1.9629059 0.19011036
2.4464357 -2.2707944 -0.17310117
3.1408858 -1.9963307 -0.064355746
3.1464131 -2.9243155 -0.52238053
3.2157922 -2.0438271 -0.32966128
2.0290923 -1.8875721 -0.53140247
2.8638704 -1.8193754 -0.53129107
1.5100129 -1.4064666 -0.54281187
1.9891441 -1.2629436 -0.5355407
8.3952847 -7.8398242 2.6417384
nan nan nan
8.3868513 -7.8319631 1.8099055
10.98291 -6.9780927 2.5202298
2.8436215 -2.6547122 0.33729273
3.7733452 -2.4083662 0.54459006
2.4166689 -2.2573235 0.057112999
3.0697801 -1.9648217 0.18919449
2.4362738 -2.2780395 -0.17297032
3.1086202 -1.9911348 -0.063832171
3.1356738 -2.935828 -0.52238053
3.2464178 -2.0791728 -0.33357546
2.0207014 -1.8929642 -0.53092587
2.8595836 -1.8306895 -0.53168172
1.4962945 -1.4034597 -0.53958082
1.9949961 -1.2764237 -0.53835046
8.2405376 -7.7520127 2.60184
nan nan nan
8.243001 -7.7543473 1.7849036
11.031675 -7.065927 2.5373871
2.850661 -2.6799829 0.33925372
3.7732692 -2.4268837 0.54580706
2.410594 -2.2674592 0.057156626
3.0419056 -1.9620196 0.18788607
2.4301238 -2.2882426 -0.17310117
3.0575128 -1.9735614 -0.062915921
3.1254067 -2.9467556 -0.52238053
3.0967376 -1.9988253 -0.31878856
2.0140812 -1.9000063 -0.53092587
2.8531754 -1.8406603 -0.53168172
1.494895 -1.4119943 -0.54087329
1.9843786 -1.2794317 -0.53666461
8.223628 -7.7876725 2.6046495
nan nan nan
8.4449072 -7.9973092 1.8345169
11.020558 -7.1104493 2.5402467
2.8449039 -2.6933432 0.33968949
3.7772768 -2.4481249 0.54763246
2.4012477 -2.273721 0.057112999
3.0186207 -1.9612358 0.18683936
2.4134676 -2.2876956 -0.17244697
3.0359254 -1.9747 -0.0626105
3.1174169 -2.9588127 -0.52268481
3.0524781 -1.9846939 -0.31487435
2.0021026 -1.9019508 -0.52949607
2.8529494 -1.8546375 -0.53285366
1.4934535 -1.4205358 -0.54216564
1.9862615 -1.2899735 -0.53835046
8.1505651 -7.772613 2.590039
nan nan nan
8.2597084 -7.8767481 1.8001392
10.882482 -7.0753403 2.5140343
2.8503733 -2.7165151 0.34143263
3.7749448 -2.4653592 0.54854518
2.3987203 -2.287267 0.057243891
2.9887614 -1.9567474 0.18540013
2.4090772 -2.299556 -0.17270865
3.0059986 -1.9702418 -0.062130563
3.1034834 -2.9662459 -0.52207631
2.9972353 -1.9645282 -0.30987293
2.0025399 -1.9157186 -0.53140247
2.8381886 -1.8591838 -0.53129107
1.4832584 -1.4207239 -0.54022706
1.9753982 -1.293254 -0.53666461
8.1514921 -7.8280182 2.5990303
11.105137 -7.2448921 3.5386167
8.2855864 -7.9568515 1.8118588
10.839238 -7.1011872 2.5097449
2.8529677 -2.7390234 0.34295785
3.7746134 -2.4839697 0.54976213
2.3867176 -2.292578 0.057156626
2.9690566 -1.9594537 0.18461508
2.398834 -2.3066387 -0.17257781
2.9844904 -1.9710983 -0.061825149
3.0943775 -2.9793227 -0.52238053
2.9841197 -1.9708686 -0.30922052
1.9905419 -1.9175855 -0.52997267
2.8378694 -1.8731521 -0.53246307
1.4817634 -1.4292493 -0.54151952
1.97698 -1.3041537 -0.53835046
8.2417841 -7.9730368 2.637243
10.98163 -7.2218847 3.5075989
8.2705641 -8.0009041 1.8149841
10.804944 -7.1354604 2.5078385
2.8505483 -2.7558932 0.34382939
3.7638505 -2.4957609 0.54945791
2.382292 -2.304373 0.057243891
2.9476342 -1.9601473 0.18369921
2.3961453 -2.3202114 -0.17297032
2.9546819 -1.9663001 -0.061345205
3.0839589 -2.9901059 -0.52238053
2.9523201 -1.9647473 -0.30661109
1.9838362 -1.924522 -0.52997267
2.8292558 -1.8816819 -0.53207237
1.4715731 -1.4293598 -0.53958082
1.9724156 -1.3110467 -0.53835046
8.0442972 -7.8337407 2.5821717
11.016025 -7.2969174 3.5263388
8.2439861 -8.028286 1.8149841
10.789399 -7.1766853 2.5097449
2.85518 -2.779732 0.34557253
3.7675033 -2.5171428 0.55128336
2.3746371 -2.3122604 0.057243891
2.9348898 -1.9657512 0.18330668
2.3848648 -2.3246572 -0.17270865
2.9332552 -1.966876 -0.061039787
3.0793512 -3.005518 -0.5232932
2.9292243 -1.9634546 -0.30487144
1.9823692 -1.9365836 -0.53140247
2.8185639 -1.8888028 -0.53129107
1.4665745 -1.4344878 -0.53958082
1.970084 -1.3189317 -0.53891242
8.1560211 -7.9982457 2.6271279
10.984458 -7.3313055 3.5244
8.2511673 -8.0915985 1.8227972
10.800987 -7.2388849 2.5183234
2.8601694 -2.8031371 0.34731564
3.7628138 -2.5330458 0.5518918
2.3736866 -2.3275397 0.057418413
2.9155827 -1.9676206 0.18252164
2.3820777 -2.3382175 -0.17310117
2.9039111 -1.9612328 -0.06055985
3.0688412 -3.0162485 -0.5232932
2.9037614 -1.9611466 -0.30291435
1.9755971 -1.9434916 -0.53140247
2.8099055 -1.897251 -0.53090042
1.4600906 -1.4376476 -0.53893471
1.9573793 -1.3203672 -0.53666461
8.1505823 -8.0489225 2.634433
10.820488 -7.2766623 3.4798119
8.1648998 -8.0630846 1.8099055
10.755309 -7.2628164 2.5135574
2.8609977 -2.8236055 0.34862298
3.7560041 -2.5475559 0.55219609
2.3619921 -2.3322964 0.057331149
2.9045641 -1.9749836 0.18225996
2.3739011 -2.3465183 -0.17310117
2.8825688 -1.9615324 -0.060254429
3.0600567 -3.0286887 -0.52359748
2.8721676 -1.9544892 -0.30030489
1.9635743 -1.9451908 -0.52997267
2.8032658 -1.9070477 -0.53090042
1.4602034 -1.4478415 -0.54087329
1.9567933 -1.3299223 -0.53778851
8.1984262 -8.1529169 2.6591592
10.72103 -7.2642927 3.4559023
8.0264177 -7.9818239 1.7852943
10.599999 -7.2120075 2.4830556
2.8670149 -2.8493829 0.35058397
3.7429879 -2.5578551 0.55158758
2.3573797 -2.3440542 0.057418413
2.8873456 -1.9780689 0.18160577
2.3692327 -2.358315 -0.17336285
2.8591962 -1.9602963 -0.05990538
3.0441961 -3.0340948 -0.52268481
2.8591602 -1.9602863 -0.29965255
1.9619809 -1.9572364 -0.53140247
2.7986302 -1.9182146 -0.53129107
1.453433 -1.4512217 -0.54022706
1.9461012 -1.3326274 -0.53610265
8.2490835 -8.2607899 2.6850088
10.715559 -7.31528 3.4623644
8.04212 -8.0534811 1.7950608
10.422908 -7.1449494 2.4473109
2.8728869 -2.8752363 0.35254499
3.7319913 -2.5694997 0.55128336
2.3491828 -2.3522687 0.057418413
2.8721972 -1.9824734 0.18108241
2.3627486 -2.3683391 -0.17349368
2.8358681 -1.9589212 -0.059556331
3.0353372 -3.0464611 -0.52298903
2.8461468 -1.9660163 -0.29900017
1.9603275 -1.9692944 -0.53283226
2.7919176 -1.927972 -0.53129107
1.4534627 -1.461428 -0.54216564
1.947461 -1.3435507 -0.53778851
8.1896009 -8.2615538 2.6754558
10.662804 -7.336719 3.4539638
8.0316668 -8.1021967 1.7993578
10.253257 -7.0841093 2.4134729
2.8851187 -2.9087441 0.35537753
3.7168787 -2.5782747 0.55037063
2.344063 -2.3644152 0.057505675
2.8546548 -1.9858721 0.18042821
2.3558078 -2.378758 -0.17362453
2.8101895 -1.9564725 -0.059163652
3.0276392 -3.0610955 -0.52359748
2.8368762 -1.9750143 -0.29878271
1.9465452 -1.9691393 -0.53092587
2.7871995 -1.9391134 -0.53168172
1.4464015 -1.4650253 -0.54151952
1.9365152 -1.3465192 -0.53610265
8.1399431 -8.266098 2.6681504
10.644372 -7.3761625 3.4559023
nan nan nan
10.139035 -7.0550284 2.3920259
